# .PCD v0.7 - Point Cloud Data file format
VERSION 0.7
FIELDS x y z intensity
SIZE 4 4 4 4
TYPE F F F F
COUNT 1 1 1 1
WIDTH 1339
HEIGHT 1
VIEWPOINT 0 0 0 1 0 0 0
POINTS 1339
DATA ascii
1.3760161 1.0637505 1.7972897 76.571426
1.2834942 1.1390929 1.7904651 25
1.4251962 1.1801091 1.8019111 23
1.4748471 1.2100285 1.8059902 19
1.1041825 1.2834455 1.7767764 1
1.1835587 1.2936223 1.783107 1
1.3400834 1.2774413 1.7955163 11
1.4270191 1.2484337 1.8023365 17.285715
1.4701571 1.2180322 1.8056519 12
5.8988314 1.4880781 1.9102172 62.444443
5.9849534 1.4906255 1.9175255 56
5.8582878 1.5688617 1.9023941 80
5.8801808 1.5698004 1.8927597 70.400002
1.1131265 1.7099721 1.7764668 8.5
5.9394026 1.6345625 1.8941329 35.5
6.0058851 1.661388 1.8872308 30.428572
6.0894799 1.6969966 1.8915713 42.599998
1.1241601 1.7674506 1.7768899 8
1.1834648 1.7560575 1.7816892 42.857143
6.2223492 1.7585225 1.8885949 27
6.2841024 1.7897593 1.8793403 42.555557
1.1199749 1.865868 1.7756727 49.444443
6.4236569 1.8708757 1.8987939 46.200001
6.4643288 1.9108919 1.8968822 48
1.0796096 1.9703386 1.77134 65.625
6.556098 1.9469743 1.8931623 16
0.88550711 2.0811515 1.8259681 18
0.99786401 2.073792 1.8129417 25.714285
7.0139894 2.0472383 1.9131656 24.5
7.1099534 2.0845206 1.929413 31.25
7.1723232 2.1160975 1.9084837 31.5
0.63419533 2.1770761 1.733778 42.5
0.69537497 2.1225684 1.7393062 28
0.89991069 2.1311038 1.7551589 9
1.0026975 2.1177311 1.8321292 1
7.212882 2.1368625 1.9073982 33
7.2948847 2.1848078 1.9456967 30.333334
7.413425 2.2437551 1.9436779 32
7.4951048 2.2894797 1.9422362 28.5
7.5768161 2.3768661 1.9403967 91.125
7.5284443 2.4735792 1.9400375 95.75
7.4932675 2.5598221 1.9395359 81.666664
7.6030064 2.6520576 1.9371651 21.5
7.6998682 2.7062018 1.9353762 21
7.8203511 2.7926309 1.9329122 76.800003
7.7894673 2.8743868 1.9322438 86.85714
7.7282181 2.9831405 1.9314823 73
7.7662845 2.9286854 1.9317999 85
7.6515412 3.1157188 1.9304073 67
7.6817646 3.0741935 1.9306968 75
-0.090674639 3.1585765 1.7600477 43.25
-0.0073924065 3.1953149 1.7639178 55.200001
7.6253881 3.1756368 1.9297625 75.25
0.050225496 3.2245169 1.7665155 55.5
0.10685039 3.2621534 1.7688994 52.666668
7.5528173 3.3011622 1.9284834 74
7.5812855 3.2719514 1.9286798 76.833336
0.10098767 3.3383732 1.7673439 37
0.2273972 3.3868675 1.7731146 19
3.2812293 3.3470592 1.8651352 7.6666665
4.2738562 3.3907433 1.8861637 50
7.5181727 3.381279 1.9274597 76.75
0.25425649 3.4292681 1.7737644 14.5
3.4075954 3.4729903 1.8132619 8
3.5793316 3.4470961 1.8694127 6.3333335
3.7125819 3.4568634 1.8724854 15.272727
3.8142757 3.4785528 1.873661 18.25
7.4497042 3.5170455 1.9256752 78
7.4756384 3.4732409 1.9262362 77.333336
0.23302507 3.5503902 1.7704751 14
0.27916336 3.5826681 1.7722391 17.5
3.7828083 3.5559881 1.8683683 5.25
4.2524018 3.6059473 1.8215406 6
4.2826509 3.5988495 1.8223046 8.5714283
7.418931 3.5738864 1.9248823 77.125
0.27970743 3.6419637 1.7711408 9.666667
7.3452153 3.7155526 1.9227462 77.5
7.3759999 3.6661656 1.9234725 76.166664
-0.18576741 3.7585816 1.7451088 10
7.3197918 3.7769134 1.9217007 73.285713
-0.37657809 3.8393466 1.733804 50.5
7.2517738 3.9160311 1.9192824 88.5
7.2840471 3.8674781 1.9200864 91.333336
-0.21948934 4.0000615 1.738833 1
-0.094470024 4.0098896 1.7449713 7
7.2242346 3.9779274 1.9181218 89.714287
-0.19635272 4.0363064 1.7392967 1
-0.1142838 4.0752239 1.7426622 7.6666665
0.010779619 4.0769968 1.7489008 37.5
7.1498499 4.12502 1.915283 85
7.1769009 4.0715699 1.916337 89
-0.13171101 4.134058 1.740595 1
7.0128622 4.1731319 1.914894 76.25
7.1326108 4.1590395 1.9145942 86.25
-0.094021559 4.2303534 1.7404842 1
2.8175297 4.2792625 1.8655167 37.75
6.9211903 4.2964811 1.9123347 75.400002
6.9746552 4.2562661 1.9130853 80.25
2.7344165 4.3799515 1.8593637 18
2.7709627 4.3296919 1.8622725 24
6.8798475 4.3788052 1.9104424 77.85714
2.8912482 4.4881744 1.7857282 5
6.8384538 4.4625301 1.9084542 76.800003
0.93164563 4.6114225 1.7801634 12
0.96383834 4.6097369 1.7816513 15
6.8960533 4.6087141 1.9044975 89.666664
0.97908807 4.6378365 1.7815814 13.666667
6.853406 4.708477 1.9019798 88.5
6.8761501 4.6651354 1.9030719 90.5
0.92325878 4.7583771 1.775859 27.5
0.99197173 4.7716818 1.7785299 49.666668
6.8183346 4.7746267 1.900277 83.285713
1.0296745 4.8723974 1.7774038 50
6.7462635 4.9063807 1.8967842 81.333336
6.7768869 4.8581128 1.8980764 79.25
-0.47371078 5.0047674 1.7048118 22
1.0139415 5.0036125 1.77306 8
6.7109823 4.9758406 1.8948766 79.166664
-0.45733523 5.0410748 1.7047596 29
1.0302625 5.0216112 1.7732532 14.5
1.071821 5.0463333 1.7743264 11
6.6507387 5.0943017 1.8915404 81.333336
6.6755962 5.0466709 1.8928958 81.666664
-0.48168683 5.113431 1.7019067 26
6.6112933 5.1764193 1.8891606 74
6.5418139 5.3022966 1.885415 68.666664
6.5745955 5.2631645 1.8866063 70
-0.094324827 5.3441191 1.7144816 15
6.5124569 5.3763642 1.8831711 72.800003
-0.080685854 5.4535828 1.7123106 15.75
-0.018141508 5.4869647 1.7142942 25
6.4454088 5.5026126 1.8792354 70.5
6.4712305 5.4498572 1.8808886 71
0.019418716 5.5339203 1.7147652 55.333332
6.4088058 5.5712523 1.8770443 67
6.3444152 5.697063 1.8729628 67
6.3636079 5.6448598 1.8746436 67.666664
6.306798 5.7706318 1.8705254 69
6.2363157 5.8964663 1.8662564 65.25
6.2658968 5.8397727 1.8681844 68
0.44551158 5.9404588 1.7222247 13
0.46950984 5.9734449 1.7222903 14.333333
6.1906047 5.9819627 1.8633075 65.199997
6.1359868 6.0942945 1.8594019 68.5
6.1567059 6.0340252 1.8614588 67
6.0879078 6.1829591 1.8562398 66.199997
6.0381927 6.2729011 1.8529825 64.5
5.9895873 6.3689847 1.8494859 66
1.2560298 6.5104856 1.7371886 81
5.9319229 6.4784698 1.8454317 63.666668
5.9556122 6.4312081 1.847181 68
1.341723 6.560185 1.7387612 75
1.4538918 6.5586281 1.74289 21
1.5001597 6.5529418 1.7447381 15.666667
1.625035 6.6093831 1.7473238 18.333334
5.8856874 6.5643034 1.8422015 63
1.6496558 6.6525302 1.7467666 22
1.7710984 6.6657243 1.7505226 39.333332
5.8329868 6.6700191 1.8382161 65.25
1.7831314 6.7414036 1.7484165 10
5.2844572 6.7992678 1.8279865 38
5.751502 6.8197188 1.8324268 61
5.7825556 6.7588196 1.8347734 62.5
5.1993289 6.8606024 1.8247879 45.833332
5.3419924 6.8236918 1.8278458 17
5.0527978 6.9661713 1.8191519 35
-0.33274627 -1.6929026 1.8487127 68
-0.29214931 -1.7302771 1.8497198 43.599998
-0.18504786 -1.715667 1.8530772 33
-0.084257841 -1.6596498 1.8565018 22
0.0082318783 -1.6091464 1.8596379 17
0.11408854 -1.5576894 1.8631852 25.5
0.23496938 -1.4928169 1.867274 22
0.31353807 -1.4501257 1.8699343 26
0.38866425 -1.4094479 1.8724765 21
0.44337296 -1.3847706 1.8742945 30
0.51481724 -1.3457336 1.876713 22
0.58239698 -1.3082192 1.8790042 28
0.64709616 -1.2734158 1.8811897 28
0.73291087 -1.2294364 1.8840727 28
0.80910897 -1.192508 1.8866171 33
0.89914179 -1.1423473 1.8896663 30
0.96906114 -1.1085153 1.8919984 33
-0.78362536 -1.0113676 1.8383847 32.333332
1.0184114 -1.0829196 1.8936554 30
1.1168928 -1.0302436 1.8969715 33
1.205183 -0.98593473 1.8999223 37
-0.79030156 -0.96370435 1.8383929 4.5
1.2549467 -0.95746017 1.9016091 33
1.3154938 -0.92587042 1.9036391 31
1.3800931 -0.8897109 1.9058213 32
1.4329636 -0.86427927 1.9075766 34
1.5061018 -0.82666254 1.9100206 34
1.5689971 -0.78971791 1.9121544 38
0.90282297 -0.69659853 1.8926518 1
1.6340933 -0.74199224 1.9144316 43
1.0414279 -0.62676024 1.8973267 6
1.9351945 -0.46372437 1.8939341 14.75
2.027689 -0.4129101 1.8884904 18.166666
2.0913663 -0.39308488 1.8968397 17.571428
2.1523914 -0.36427033 1.9036813 32.25
2.2070408 -0.34066439 1.9101802 29.142857
2.2833412 -0.29103971 1.9186952 22.666666
-1.1862891 -0.201244 1.828529 5.5
2.3375437 -0.25834394 1.9009689 13.428572
2.395421 -0.23164296 1.9235826 4.3333335
-1.2458041 -0.10359395 1.8268647 21
-1.2115452 -0.1509248 1.8278495 18.5
-1.2467139 -0.065103292 1.8269324 16.5
-1.3761747 0.17927384 1.8232635 25.333334
0.016400814 0.33082891 1.868865 13.5
0.11195779 0.37873602 1.8720798 16
0.17775369 0.41084743 1.8742907 23
0.24565673 0.44300795 1.8765695 27
0.30685782 0.49306107 1.878669 64.5
0.2909863 0.5546996 1.8782792 58.75
0.29830885 0.66638809 1.8787211 76.285713
0.2523098 0.76053864 1.877359 72.25
0.27099967 0.73400915 1.8779334 80.333336
1.250324 0.97761619 1.8731997 16.799999
1.3072183 1.0046598 1.8919731 25.666666
1.1111934 1.1080862 1.9058266 59
1.1940498 1.1116219 1.8459661 22
1.3516309 1.0655346 1.8693719 43.75
1.386549 1.0736701 1.8889492 66.5
1.1011579 1.1359998 1.9055107 28.25
1.2207735 1.124052 1.8475016 39
1.4275806 1.1866392 1.8763494 20
1.0290716 1.3006668 1.8370821 1
1.1571703 1.296592 1.844274 1
1.2089894 1.2800133 1.895471 11.111111
1.3357034 1.2511914 1.854244 18
1.433929 1.2475764 1.8833858 16.166666
1.470654 1.2363515 1.8898038 21
5.9093266 1.468858 1.9906741 62.764706
5.9841471 1.5006818 1.9917395 60.375
5.8709431 1.551218 2.0009 81.615387
1.144753 1.7079453 1.8746393 7.5
1.2174482 1.6773816 1.8779577 1
5.9297724 1.6385539 1.9996315 41.333332
6.0316257 1.6660329 1.9784796 37.375
6.0815096 1.6792558 1.9954287 42.333332
1.1587048 1.7207913 1.8752458 19.5
1.1972845 1.7682219 1.8767586 53.650002
6.1091003 1.7266362 1.9908378 30.5
6.2267475 1.7742406 1.9973748 24.375
6.2777023 1.7914209 1.9780999 42.57143
1.1461756 1.878667 1.8687161 65.166664
1.1745896 1.8380804 1.8860581 62.833332
6.3053665 1.8318863 1.961231 38
6.416811 1.8904526 1.9593643 35.833332
6.4619694 1.876976 1.9588675 45
6.7253752 1.891669 2.0228794 33
6.7820044 1.9167521 2.0233645 37.5
1.1018748 1.9632413 1.8716431 54.5
6.8414793 1.9483099 2.0238588 43
6.9026155 1.9811016 2.0243642 39
6.9732647 2.0166173 2.0249531 38
0.74591494 2.1124678 1.8923688 62
0.94490194 2.0950153 1.8989124 15.5
1.0729613 2.0245504 1.8700863 52
7.0338593 2.0506718 2.0254459 37
7.1144652 2.090946 2.0261145 33
7.1608138 2.1184974 2.0264845 31
0.90811825 2.1306987 1.8975919 10
0.96886921 2.1267576 1.8995835 2
7.224524 2.150444 2.0270102 32
7.3170419 2.1952248 2.027777 33
7.4182134 2.2506413 2.0285916 34.333332
7.5332899 2.3113315 2.0295229 35
7.5834198 2.3847234 2.029757 97.428574
7.5365133 2.4802492 2.0289207 99.714287
7.5637484 2.4484439 2.0293205 100
7.5035567 2.5697165 2.028219 81.14286
7.6042309 2.6589141 2.028856 24
7.6984987 2.7049954 2.0296125 31
7.8161182 2.7830143 2.0304625 67.5
7.7985582 2.8771677 2.02984 99.888885
7.7364278 2.9875131 2.0286481 89.199997
7.7637634 2.966305 2.0290422 100
7.6554899 3.1176815 2.0271046 88
7.6946583 3.071568 2.0277686 92.14286
-0.14997888 3.210669 1.8585162 34
-0.10054159 3.167922 1.8603261 38.75
-0.016623259 3.1926746 1.8628634 54.5
7.6267095 3.1922131 2.0263784 92.666664
7.6639929 3.1450539 2.0270431 95.5
0.016414642 3.2329588 1.8636856 34.333332
0.10123396 3.265439 1.8661877 37.5
7.5527935 3.3176913 2.0248408 90
7.5857553 3.2685413 2.0254929 96.166664
-1.9469745 3.3857491 1.7999686 15
0.096613169 3.3495831 1.8655385 42.25
0.21355224 3.3862486 1.8690008 15.75
3.1933768 3.3197575 1.9571368 1
3.3308532 3.3756509 1.9126604 19.666666
4.3179679 3.4048414 1.9806842 7
7.5298157 3.3792076 2.0242095 93
-2.0327446 3.4377518 1.7969668 7
0.22310448 3.4554956 1.8688599 7.5
3.2425275 3.4358883 1.9078587 19.5
3.2820809 3.4307928 1.9092669 15.333333
3.3876607 3.47438 1.9109292 3
3.7526143 3.4775198 1.9203532 7
3.7595041 3.4838762 1.9202852 9
7.4555082 3.5200274 2.022481 99
7.4832892 3.4691982 2.0231228 94.285713
0.24905562 3.5842018 1.8688242 20.5
0.27256441 3.5843809 1.8695561 12.666667
4.2496171 3.5939798 1.9256533 2
4.283741 3.5895784 1.9263116 9.5
7.4245992 3.5771372 2.0217488 94
-2.2927029 3.6208439 1.7877452 3
-2.1932056 3.633359 1.7908884 22.666666
-2.0698545 3.6479766 1.7947849 38
-1.9865396 3.6739213 1.7973337 42.333332
-1.9303629 3.6989021 1.7990119 48
0.27754378 3.6348741 1.8693674 6.5
3.1420825 3.692908 1.8959126 14
7.3500123 3.7184112 2.0199146 93.5
7.3794403 3.6680157 2.0206089 95
-1.8726971 3.7341478 1.8006811 61
-1.7978189 3.7828422 1.8028259 63
3.0529382 3.8003361 1.8893995 31
3.0913939 3.7672272 1.8917634 50.400002
7.3253555 3.7804661 2.0191791 92.428574
-3.2198536 3.8858154 1.7566453 34
-1.7618172 3.8252888 1.8037521 63.5
3.0065758 3.8465385 1.901265 19
7.2841034 3.876369 2.0179837 98.571426
-3.1893995 3.915282 1.7574908 37
-0.50453353 3.9232402 1.8429948 1
-0.17401624 3.9818749 1.8529117 52
-0.12718654 4.0119953 1.8541533 11
2.9589982 3.9601777 1.8809295 7
7.2281189 3.9902475 2.0164437 100
7.2597284 3.9400165 2.0172114 100
-0.080342531 4.0627851 1.8552375 13
0.051554918 4.0490036 1.8594108 48
0.06268549 4.0703001 1.859596 53.5
7.1552444 4.1101184 2.0146067 100
7.1858649 4.0693784 2.0153074 99.833336
7.1301622 4.1861792 2.0136735 98
7.1581926 4.1317654 2.0144665 100
2.7251794 4.2969041 1.9338841 7
6.9322214 4.3070087 2.0101624 76.333336
7.0105109 4.3093314 2.0111368 71.5
7.0832357 4.274415 2.0123508 99.666664
-1.6577046 4.3101807 1.8042669 33
2.6618729 4.3667812 1.9314576 1
6.8897104 4.3783164 2.0089869 77.5
7.03407 4.3414192 2.0111587 79
7.0590086 4.3438177 2.0114536 100
6.8361492 4.4712238 2.0074556 72.75
6.8565683 4.4392552 2.0080125 76
6.9008427 4.5916333 2.0072074 94
0.95142436 4.6346731 1.8814856 2.5
6.8514099 4.7197404 2.0053618 97
6.8846536 4.6638064 2.0063264 98.571426
-2.0539296 4.728756 1.7891554 18
0.93353271 4.7575331 1.8798054 28.333334
0.99728274 4.7649298 1.8815746 61.75
3.0383382 4.801784 1.9356416 13
3.0978644 4.7853265 1.9372625 35.57143
6.8217459 4.7790742 2.0044005 95.285713
1.0276074 4.8620052 1.8815054 60.857143
2.9900751 4.8704996 1.9336526 11
3.3220186 4.9073429 1.9410235 21
6.7744074 4.8803091 2.0027854 96
-1.1811011 5.0036454 1.8143724 45
-1.060282 4.9423809 1.8185445 76
-1.0052993 4.9943819 1.8198355 45.5
1.0638282 4.9154716 1.8820177 10
2.9245501 4.971302 1.9308574 19.333334
3.2365751 4.9661779 1.938326 8.333333
3.3061306 4.9291353 1.9403893 20.6
3.3633397 4.9222441 1.9417888 16
6.7202482 4.967658 2.0011847 98.166664
-1.3585498 5.1024342 1.8081776 71
-0.96452498 5.0303583 1.820806 54
-0.88607812 5.0616159 1.8229563 91.75
-0.81427026 5.0981708 1.8248531 89
3.4882412 5.1012478 1.9424119 1
6.6496792 5.1200218 1.9986775 99
6.6827946 5.066062 1.9996858 98.666664
-0.76197743 5.1228247 1.8262436 89.5
-0.68725038 5.1676617 1.8281417 89.5
-0.60714889 5.2070503 1.8302357 92.5
-0.52928329 5.2073965 1.8325758 93
6.6207399 5.1767797 1.9976898 94.166664
-0.5648396 5.2517443 1.8311352 65
-0.54018092 5.2436872 1.8319442 71
6.5770388 5.2689934 1.9961181 92.199997
-0.59645963 5.3614655 1.8292627 35
-0.11606884 5.365799 1.8435118 15
6.5282764 5.3707099 1.9943533 95
6.5566177 5.3252726 1.9952412 99
-0.65182376 5.4526744 1.8268304 41
-0.2253015 5.5026169 1.8390627 30
6.4458451 5.5205784 1.9915527 94
6.4796648 5.4640522 1.9926554 95
-0.68106198 5.5203476 1.8253781 100
-0.60844541 5.5549889 1.8272454 90
-0.5246222 5.5926218 1.8294096 92
-0.1032517 5.5328498 1.8423766 25
0.0046322346 5.5633473 1.8452497 35.833332
6.411665 5.5766773 1.9904387 86.333336
-0.48064399 5.6235681 1.8304403 86.5
-0.38576865 5.6614094 1.8329035 85
-0.31631017 5.6938095 1.8346566 71.5
-0.22928309 5.7083993 1.8370756 86
6.3453121 5.6994653 1.9881058 88
6.3708019 5.6578369 1.9889466 88
-0.025341511 5.7903147 1.8422523 31
6.3104792 5.7783947 1.9867084 94.333336
6.2357683 5.8963966 1.9842443 89
6.2667847 5.8608384 1.9851241 93.666664
0.24400282 6.0056524 1.8479015 95
0.27235317 6.0025115 1.8487387 60
6.2024565 5.967011 1.9829338 87.199997
0.32005477 6.0394044 1.8497237 82.800003
0.39536738 6.0881357 1.8513616 100
6.1358957 6.0952363 1.9804355 91.5
6.1646967 6.0513291 1.981391 88.333336
0.43515658 6.1205816 1.8521528 100
0.50570726 6.1453686 1.8538767 100
0.59810948 6.1897726 1.8559973 98.75
6.0998631 6.1678801 1.979033 86.199997
0.63788533 6.221024 1.8567774 100
0.70384693 6.245851 1.8583418 99.5
0.80272746 6.2969918 1.860523 98.199997
6.0326767 6.2845845 1.9766093 82
6.0638223 6.2420039 1.9776058 82
0.89963269 6.3498259 1.8626068 99.5
0.98693824 6.3974743 1.8644634 99.25
5.9902601 6.3730001 1.9748963 83.400002
1.0398724 6.4277258 1.8655646 100
1.1032996 6.4571867 1.8669474 99
1.1836174 6.4969954 1.8686577 100
5.9347744 6.4895782 1.9726282 80
5.9596701 6.4425139 1.9735885 87
1.2332642 6.5319185 1.8695924 100
1.3071623 6.5620861 1.8712125 98
1.3893247 6.5984974 1.8729686 98.333336
5.8886223 6.5739884 1.9708714 87
1.42927 6.6324844 1.873632 100
1.5033832 6.6626897 1.8752217 99.5
1.5736804 6.7018509 1.8765994 100
1.8389699 6.7053499 1.8833598 9
1.8806807 6.7047372 1.8844246 22
5.8337383 6.6747112 1.9687644 86.5
1.6176398 6.72682 1.8774481 85.333336
5.7868452 6.7729187 1.9668092 84.75
5.7286811 6.8786631 1.9645565 87
5.7548838 6.8315248 1.9655678 76
5.6852698 6.972302 1.9626902 83.5
5.630084 7.0708718 1.960547 77.25
5.5780663 7.1803412 1.9583172 78.5
5.5269446 7.268693 1.9563437 74.666664
5.4776344 7.3685403 1.9542544 77.25
3.0105348 7.4689398 1.9024299 90
3.0950499 7.4949698 1.9040344 91.199997
3.4365761 7.4943876 1.9116838 71
3.4935141 7.5080442 1.9127662 77.25
5.419035 7.4817758 1.9518237 75
3.1753521 7.5395026 1.9053024 64.666664
3.2892921 7.6047878 1.9070518 48.5
3.4128942 7.526772 1.9107604 30
3.5192361 7.5196395 1.9131873 78
3.5828803 7.536869 1.9143628 80
3.7006285 7.5460854 1.9167984 82.25
3.795537 7.5568185 1.9187011 84.400002
3.8698363 7.555234 1.9203035 85
5.3462133 7.6014209 1.9490397 3
5.370882 7.5624857 1.9499657 66
3.329813 7.6204476 1.9077607 87.5
3.3713083 7.6469388 1.9083542 95
3.902555 7.6431079 1.9199072 99
3.6281688 7.7789297 1.9123471 76
3.9272859 7.9348903 1.9168118 84
3.9954629 7.962575 1.9179034 84.400002
-0.28943515 -1.7272701 1.9710653 92.5
-0.23207259 -1.7397711 1.9718508 54
-0.31498981 -1.6675887 1.9702985 90.666664
-0.087024927 -1.6607981 1.9729741 19
0.041464329 -1.592917 1.973987 17
0.12716174 -1.5465052 1.9746544 19
0.2078023 -1.5032802 1.9752866 19
0.3195262 -1.4443243 1.9761714 19
0.41511154 -1.397042 1.9769551 21
0.52058172 -1.3395216 1.9777778 22
0.61162972 -1.2926438 1.978512 22
0.700495 -1.2460766 1.9792233 21.5
0.79541683 -1.1941285 1.979966 24
0.84855413 -1.167017 1.9803989 26
0.92630601 -1.1269975 1.9810305 25
0.99457192 -1.0942109 1.9816056 29
-0.74153543 -1.0294194 1.96099 61
-0.72927928 -1.0227861 1.9610822 79.5
1.0543222 -1.0591745 1.9820566 24
1.1210208 -1.0258415 1.9826097 27.5
1.1858549 -0.99328995 1.9831473 28
-0.74290538 -0.94923186 1.9604807 15.5
1.2272732 -0.97347832 1.9834996 33
1.3174579 -0.92289805 1.9842049 28.333334
1.3901629 -0.88758421 1.984822 31
1.434649 -0.86193252 1.9851655 28
1.5074954 -0.8244276 1.9857684 32
0.93935394 -0.70011759 1.9777701 15.5
1.631901 -0.75845408 1.9867853 24.5
1.7058222 -0.70733595 1.9872862 27.25
0.96483827 -0.65854383 1.9777559 3
1.8150976 -0.65614271 1.9882472 22.666666
1.8686751 -0.63023424 1.9887135 31
1.92758 -0.58066773 2.0537779 32
2.022697 -0.48427594 1.9894061 27
2.2019935 -0.40080035 2.0483334 19
2.1530888 -0.36649859 2.0188217 27.75
2.2077494 -0.34283721 2.0227201 26.142857
2.3013935 -0.29674911 2.0020688 17.4
-1.0984919 -0.21087372 1.9528666 12
2.3417261 -0.26348233 2.023391 20.4
2.39394 -0.24002135 2.0129449 4.8000002
-1.1876504 -0.13371646 1.9516318 27.833334
-1.0993435 -0.18241358 1.9527336 18
-1.230561 -0.050665021 1.950859 26.5
-1.3644764 0.19109905 1.9486258 26.333334
0.027293921 0.34790957 1.9619188 6
0.16624165 0.40065229 1.9631071 21
0.18404436 0.42659438 1.9631861 20
0.30902863 0.49364048 1.9641834 65
0.25852275 0.59925932 1.9633095 10
0.295187 0.53595877 1.9638921 72.5
0.28778577 0.66510147 1.9633855 38.57143
0.24067807 0.76479113 1.9626229 23.4
0.285815 0.72149372 1.9631909 72
1.2448349 0.97500741 2.0027571 14.5
1.2834966 0.99541897 2.0025795 23.25
1.1193738 1.1044834 2.0024607 52
1.3353541 1.0444247 2.002311 36
1.381263 1.0752687 2.0005765 65.052635
1.0886445 1.1593388 2.0023737 41.099998
1.3523753 1.1185108 2.0313303 68
1.1122181 1.247335 2.0084059 27.6
1.1938198 1.2873682 1.9982491 11.777778
5.9060388 1.460669 2.0873079 58.4375
5.9899368 1.5044557 2.0911388 53.599998
5.8703861 1.5611204 2.0622382 75.428574
6.0427294 1.5329149 2.1188636 52.5
6.1162 1.5723054 2.1230419 51.714287
6.1903639 1.6137915 2.1272781 48.5
1.1208007 1.7014439 2.0126431 5
1.2089825 1.6796062 1.9914876 2
5.93785 1.6446315 2.0644736 39
6.0154104 1.6605877 2.067028 36
6.0832119 1.6970303 2.0692735 32.200001
6.2287283 1.6336596 2.1294742 46
6.3053088 1.666545 2.1338506 44
6.3773632 1.7048743 2.1379988 48.666668
1.1466308 1.7224033 2.0019112 22
1.1954694 1.7685366 2.001996 54.888889
6.4390726 1.785223 2.1417499 66.5
6.5005207 1.7752022 2.1293714 46.875
6.587923 1.8166223 2.085911 37
1.1395538 1.8902322 2.0088036 50.200001
1.1724291 1.8402562 1.9958038 58.599998
6.6348705 1.8430579 2.1093743 37.333332
6.7076864 1.8794745 2.0898964 34.25
6.7765217 1.9166156 2.0921912 33
1.0947852 1.9672098 2.0007577 51.235294
6.8211217 1.9402196 2.093679 35
6.9003215 1.9815892 2.0963225 32.333332
6.9617882 2.0153084 2.0983782 30
1.0712688 2.0269241 2.0095391 50.200001
7.0215344 2.0431504 2.1003706 30
7.1052256 2.0898645 2.1031754 30.333334
0.64681864 2.1907425 1.9658121 21
0.70214772 2.1563706 1.9662957 35
7.2014914 2.140389 2.1063995 30.5
7.3031082 2.1932425 2.1098051 28
7.4104414 2.2499282 2.1134071 30
7.5007524 2.2978992 2.1164405 29
7.5879965 2.3802679 2.1194494 92.285713
7.5357876 2.4971132 2.118026 100
7.5698686 2.4444609 2.1190033 98
7.5017118 2.5702052 2.1171145 85.333336
-1.7890847 2.7058814 1.9426568 73
7.6067858 2.6612611 2.1207664 20
7.707284 2.7169058 2.1241734 24
-1.7728708 2.722888 1.9428486 15
7.8092604 2.7740359 2.127634 55
7.8558135 2.8137698 2.1292558 100
7.8091884 2.8748927 2.12795 99.444443
7.7380495 2.9957173 2.1260808 89.25
7.7751589 2.9567103 2.1271312 99.666664
7.6963396 3.0737863 2.1250393 91.75
-0.10063338 3.1788135 1.961164 34.599998
-0.011708498 3.1960793 1.9621782 46.5
7.6389999 3.1915207 2.1236844 91
7.6726799 3.1431899 2.1245568 93.5
-0.079665422 3.2682116 1.9617506 1
0.040239573 3.2364097 1.9629016 52.5
0.11661983 3.2722502 1.9638796 42.75
7.5911646 3.2729998 2.1225171 92.285713
-0.0037205219 3.3155434 1.9627688 1
0.10068059 3.3539901 1.9640723 33.25
3.2485077 3.4098396 2.0059078 10
3.280457 3.3843503 2.0419402 35
4.3011751 3.3991642 2.0486019 1.4444444
7.5357013 3.3843744 2.1212738 91.666664
7.5666265 3.3349485 2.1220186 91
3.2260869 3.4830568 2.0314496 2.5
3.2581611 3.4286485 2.055104 25
4.2884731 3.4426756 2.0663638 17.200001
7.4942942 3.4687896 2.1203804 91.85714
3.1879244 3.5413089 2.032212 3.125
7.4352627 3.5856905 2.1191306 92.714287
7.4703426 3.5308058 2.1199408 93.5
3.1450312 3.6363418 2.0606415 1
7.3882275 3.6758971 2.1181529 90.428574
-3.1954024 3.792212 1.9311643 30
-2.2512434 3.7138646 1.9406155 13
-2.2270496 3.764698 1.9410383 66
-0.44293666 3.7966061 1.9601966 64
3.0857766 3.7372949 2.0349898 1.5
7.3277235 3.7932873 2.1169446 85.428574
7.3618631 3.7373238 2.1176775 90.5
-3.202431 3.8501167 1.9312657 61.333332
-2.1636903 3.8492723 1.9419947 56.200001
-0.43636203 3.8125856 1.9603473 73
7.2903352 3.8832741 2.1163263 99.166664
-3.2619917 3.9524233 1.9309702 58
-2.1734159 3.9374633 1.9422144 59
-2.101784 3.9682429 1.9430838 45.333332
-0.97234559 3.9807956 1.9552523 13.666667
-0.82435775 3.9870586 1.9569086 5
2.9986153 3.9532514 2.0694034 21
7.2349095 3.9885588 2.1152785 97.166664
7.2623987 3.9353392 2.1157866 98.5
-3.3068855 4.0537224 1.9308317 65.666664
-1.0087817 4.0540047 1.9551985 10
0.067007542 4.0652752 1.9674314 50.333332
2.9265018 4.074542 2.0400512 2.125
7.1915169 4.07656 2.114521 95.428574
7.1328526 4.1913033 2.1135073 91.5
7.1602378 4.1362219 2.1139641 93
7.0859528 4.2798204 2.1127059 92
-1.2947605 4.3495579 1.9534793 16.75
2.7583008 4.4027209 2.0075185 31
7.0354576 4.3866029 2.1119533 93.5
7.0590091 4.3356147 2.1122906 98
-1.3385341 4.4350839 1.9534212 11
2.7353067 4.4325848 2.0074263 11
6.9880877 4.4776516 2.1112115 95.571426
-1.5516822 4.6094084 1.9519271 19
-1.5386093 4.5763683 1.9519041 22
2.6742499 4.5313807 2.007381 1.3333334
6.9317131 4.583395 2.1103411 94.5
6.9618711 4.5482121 2.1109617 95.5
-1.5253055 4.6575413 1.9524739 17.5
6.8891673 4.6720371 2.1097772 93.625
0.92735505 4.7612257 1.9830935 19
0.99261332 4.7669296 1.9840282 44.799999
6.8328972 4.7719493 2.1089249 92.166664
-1.7656682 4.8820524 1.9509454 54
-1.7324975 4.9014626 1.9514256 72
1.0270979 4.8590755 1.9852536 53.666668
3.036181 4.8798862 2.0174437 3
3.0876088 4.9045005 2.0186627 2.5
6.7470074 4.9244504 2.1076829 45
6.7756829 4.8612413 2.107991 73.571426
-1.6923268 4.9290752 1.9520327 76.666664
-1.5982854 4.9780025 1.9533796 73.199997
-1.1492102 4.9907761 1.9586711 100
-1.0496118 4.9443855 1.9595648 63
-1.0118172 4.9964523 1.9603279 50
1.0461395 4.9210844 1.9860297 49
1.0608714 4.9277587 1.9862909 14
3.0832739 4.9225421 2.0187721 3
3.2397513 5.0073795 2.0226476 2
3.2704971 5.015584 2.0233293 1
6.7217007 4.9814763 2.1074317 45.333332
-1.4884965 5.0399199 1.9549985 73.800003
-1.3428557 5.1015034 1.9570577 56
-0.97530007 5.0222478 1.9609208 80
-0.89191937 5.062849 1.9621719 68.599998
-0.81418109 5.094604 1.9633099 42.5
3.2186728 5.0189161 2.0223656 1
3.3135104 5.0474997 2.0245085 1
3.4028995 5.0833716 2.0266514 1.2857143
3.4769073 5.0614719 2.0278873 1
6.6495805 5.1109333 2.1064725 43
6.6795626 5.0703182 2.1069772 44.400002
-0.77905059 5.1196432 1.9638972 89
-0.70779538 5.1549473 1.9649973 83.599998
-0.62923455 5.1952467 1.9662299 83
-0.5231688 5.2117786 1.9676553 84
6.6225648 5.1833715 2.1063323 38.400002
6.6522827 5.1414437 2.1068091 43
-0.57238221 5.2454138 1.967275 67
-0.53101993 5.2454462 1.9677888 68
6.5743275 5.2693977 2.1057272 39
-0.58946681 5.3652487 1.9678876 30
6.5231676 5.3682785 2.1051743 39.666668
-0.63804936 5.4505258 1.9678732 34
6.4498858 5.5165992 2.1044827 36
6.4802804 5.4700127 2.1048982 39.599998
-0.67244744 5.5228958 1.9679487 96
-0.59997964 5.5574789 1.9691123 79.599998
-0.52203488 5.6005211 1.9704167 81
6.416728 5.5745187 2.1041026 34.333332
-0.47132182 5.6396794 1.9713553 83.333336
-0.38717055 5.673964 1.9727005 83
-0.31634688 5.7051454 1.9738597 91.5
6.3446379 5.7043138 2.1033378 35
6.372962 5.6673837 2.1037638 34.25
-0.27547717 5.7372026 1.9746411 90.666664
-0.19453931 5.7730594 1.9759898 89.800003
-0.12497282 5.8042727 1.9771618 88
-0.01870966 5.7935271 1.9785074 31
6.3198671 5.7659292 2.1032443 34.400002
-0.092940092 5.830492 1.9777988 91.5
6.2431097 5.898046 2.1024306 30.5
6.2764282 5.8482347 2.1028502 33.5
0.23107862 6.0003686 1.9836314 82
0.25326848 6.0051455 1.9839827 91
6.2061386 5.9616466 2.1020532 29
0.30498624 6.037704 1.9849864 89.400002
0.39377856 6.0862966 1.9866629 90.400002
0.45260215 6.1082659 1.9876952 89
6.1415362 6.0935497 2.101614 28
6.1676273 6.0442176 2.1018255 31
0.50385785 6.1425538 1.9887344 91.400002
0.59447002 6.1891851 1.9904649 89.800003
6.1054039 6.1654558 2.1013644 28.799999
0.64146113 6.2278485 1.9914987 99
0.71023083 6.2484031 1.992703 91.5
0.79393077 6.2863197 1.9942966 89.333336
6.0371075 6.2800584 2.1007047 28
6.0666885 6.2340879 2.1010227 25
0.83223748 6.3184938 1.995167 91.5
0.89853787 6.3459597 1.9964261 89.599998
0.99097681 6.3920088 1.9982704 88.400002
5.9955339 6.3701105 2.1005182 27.200001
1.0172067 6.4200616 1.9989364 96
1.1001461 6.4559398 2.0005658 91.166664
1.1903903 6.4982028 2.0023861 86
5.9297519 6.4852352 2.0999715 25
5.9584064 6.4485068 2.1003404 27
1.2425649 6.5281372 2.0035005 91.5
1.304096 6.560473 2.0047967 87.800003
1.3842092 6.600997 2.0064824 88.25
5.8922105 6.5664339 2.0998268 24.799999
1.4376059 6.6311755 2.0076456 86.5
1.5077157 6.6693006 2.0091715 88.166664
1.590872 6.7036829 2.0108881 89.333336
5.8328605 6.6824856 2.0994897 25.333334
5.8605328 6.6449246 2.0998111 28
1.6314981 6.7365026 2.0118928 86.5
1.6937888 6.7666502 2.0132415 87.400002
5.7831092 6.7734308 2.099158 23.6
5.7374163 6.8846555 2.0991473 24.666666
5.6825194 6.9763312 2.0987198 22.4
5.627296 7.0730486 2.0983486 23.333334
5.5834041 7.1743112 2.0983169 23
5.5245028 7.273818 2.0979095 21
5.4741735 7.3691301 2.0976796 22.666666
5.4229622 7.46872 2.0974839 21
3.2854762 7.6068463 2.0515816 11
5.3699889 7.576448 2.0973415 16
3.3251135 7.6311092 2.0526454 50.666668
3.3984914 7.6668687 2.0545237 76
3.4724357 7.6987853 2.0563822 79.666664
3.5252256 7.7325339 2.0578344 81
3.6018906 7.771276 2.0598428 82
3.678792 7.8037982 2.0617981 80
5.238369 7.7997746 2.0965641 1
3.7221322 7.8348794 2.0630438 77.5
3.7992091 7.8721886 2.0650737 76.199997
3.8773837 7.9073 2.0671122 73
3.92291 7.9310074 2.0683403 75
3.9912729 7.9674401 2.0702009 76.5
4.0480886 7.976593 2.0715227 15
4.0731573 8.0438519 2.0727952 1
-0.29791379 -1.7295284 2.0923886 96.5
-0.18141103 -1.7189107 2.091399 30
-0.33788705 -1.6576617 2.0911009 92
-0.32390475 -1.6699104 2.0912676 100
-0.071204662 -1.6553726 2.0892925 19
0.02594161 -1.6010046 2.0874746 20
0.1007297 -1.5633988 2.0861719 18
0.17520761 -1.5253086 2.0848622 20
0.25248861 -1.4842269 2.0834701 17
0.33254409 -1.440125 2.081995 19
0.40295482 -1.4030893 2.0807393 21
0.49949265 -1.3536389 2.0790517 20
0.58885002 -1.3078935 2.0774937 22
0.65351677 -1.2729945 2.0763271 20
0.71637297 -1.2389688 2.0751927 20
0.77133918 -1.2110202 2.0742443 24
0.82455587 -1.1840241 2.0733292 22
0.90165472 -1.1448128 2.0720046 22.5
0.97982717 -1.1036415 2.0706313 22
-0.75698733 -1.0240383 2.0823686 19
1.0411317 -1.0673704 2.0694621 19
1.0937145 -1.0467811 2.0687132 22.5
1.1727974 -1.0016949 2.0672514 21
-0.76066852 -0.98552895 2.0817492 2
1.2398758 -0.96701312 2.0661016 26
1.3234696 -0.92427087 2.0913284 25.333334
1.3817148 -0.89223337 2.0636461 22
1.429893 -0.86485553 2.1094694 26
1.5233741 -0.81770301 2.0913734 27.799999
1.5753968 -0.78499079 2.1341677 25
0.832654 -0.7512393 2.0636067 1
0.9222095 -0.70960426 2.0620909 12.5
1.626122 -0.76460719 2.0887454 29.6
1.7154212 -0.71525264 2.1049087 30.833334
1.7659659 -0.68827844 2.05706 28
1.8176792 -0.66377187 2.0902162 33.333332
1.9692795 -0.53469765 2.1158223 39
2.1926658 -0.40868032 2.1062217 16
2.1588361 -0.35108352 2.1043544 28
2.2007847 -0.33892202 2.133842 25.545454
2.3098569 -0.30559814 2.1266155 12.75
-1.1590126 -0.23137403 2.0753117 26.6
-1.1297591 -0.25500107 2.0752387 20
2.3540859 -0.26129138 2.1390924 13.6
2.3697906 -0.25993001 2.1097693 6.5
-1.2077234 -0.13741219 2.0748315 31.666666
-1.2632582 -0.038656592 2.0744553 28.25
-1.2394679 -0.07963407 2.0745902 30
-1.3783576 0.19049156 2.0737152 29
0.17756152 0.40574682 2.0520935 14
0.23884773 0.44327575 2.0509579 16.5
0.30177999 0.4933666 2.0496845 58
0.24081182 0.59703624 2.049521 4
0.28237414 0.53463471 2.0495436 75.25
0.29149032 0.66638041 2.0483017 59.75
0.22674513 0.75093597 2.0485065 57.857143
1.1128566 1.2437708 2.0981855 28
1.1960382 1.2959623 2.0949109 14.4
1.1297576 1.321056 2.097276 1
5.9033756 1.4588892 2.2020411 58
5.9933224 1.5016931 2.1887655 53
5.8962588 1.5633744 2.2063031 38
6.0365124 1.5284818 2.169456 50
6.1116395 1.5636789 2.1832299 48
6.1814542 1.606092 2.2045043 36
6.1347775 1.6922984 2.2317052 6
6.1935034 1.6384417 2.2213125 19.571428
6.3170166 1.6717123 2.1922629 47.200001
6.3954411 1.710668 2.1986911 50
6.0948524 1.7751751 2.2285001 6.0769229
6.4309235 1.7332084 2.2016375 50
6.5052528 1.780036 2.2078331 33.666668
6.571692 1.8229842 2.2133987 13
0.89100504 1.8622653 2.1074955 26.799999
0.98663044 1.8955746 2.1043055 23.666666
6.0669866 1.8701477 2.2269742 8.083333
6.3926344 1.9050441 2.2000341 60.666668
6.6060658 1.8423525 2.2162657 13
6.7194791 1.8920223 2.2001443 21.125
6.7795582 1.9163872 2.1613429 31
0.85344028 1.9314225 2.1094368 1
0.94148612 1.9694886 2.1066248 1
1.0371783 1.9262717 2.1027579 30.5
1.0932488 1.9805193 2.1012988 44.857143
6.1098757 1.9405379 2.23247 8.333333
6.1629748 1.9697671 2.2383494 3
6.4122324 1.9363221 2.2018998 9
6.8055573 1.9471991 2.2153549 15
6.8915844 1.9737915 2.1678848 30.75
6.9764051 2.0173457 2.172847 27
1.0461802 2.051573 2.1037841 52
1.0702515 2.0308719 2.1026828 53
6.5928321 2.0680125 2.2175767 3
7.0193205 2.0425 2.1753798 32.5
7.0970612 2.0932808 2.218509 20
0.72945642 2.1277466 2.0787697 46
7.1254325 2.1343007 2.2599907 11
7.2070289 2.1407804 2.1864126 29.5
7.3081689 2.1937745 2.1923716 30.666666
7.3899889 2.2508631 2.1973004 20.333334
7.4831038 2.2994676 2.2028017 19
7.6039553 2.3838325 2.2101212 83
7.5483384 2.5140514 2.2081776 97
7.5749931 2.4659078 2.2092109 97.166664
7.5266829 2.57061 2.2075298 89.571426
7.6051331 2.6599827 2.2126932 20
7.7187853 2.7200325 2.2194946 22
7.7936125 2.7605705 2.223985 22
7.8733282 2.8112605 2.2288508 74
7.8320231 2.8825486 2.2274005 99.714287
7.871645 2.8342714 2.229007 100
7.7520843 3.0243702 2.224787 58
7.7842026 2.9750366 2.2259057 90.571426
7.7196283 3.0755916 2.2237096 80
-0.087988377 3.1738842 2.0618255 51.599998
-0.031085014 3.2057281 2.0616553 62
7.6462445 3.2190199 2.2217624 75
7.6728392 3.1664362 2.2224371 80.285713
0.022329569 3.2292047 2.0614278 50
0.095747948 3.2750797 2.0613406 42.5
7.6171994 3.277564 2.2210836 79
0.092409134 3.3589001 2.0626254 30.75
3.2319283 3.3874979 2.1499016 38
3.2717752 3.3560483 2.1187835 39
3.4093218 3.4023328 2.1035211 1
3.4875209 3.3935101 2.1037567 0.69999999
7.5364017 3.4175315 2.2189991 78.5
7.5685759 3.368413 2.2199061 79
3.1422429 3.5161617 2.1601596 6
3.219862 3.4499512 2.1215868 13.333333
3.4013367 3.4297769 2.104985 1
3.4758608 3.4283428 2.1055994 1
7.5136976 3.4796333 2.2188287 80.85714
3.1366229 3.5331974 2.1614919 6
3.16856 3.5429339 2.1247964 3.4285715
7.4421911 3.6065085 2.2172964 82
7.4724903 3.5569966 2.2179961 80.400002
3.0676336 3.6824279 2.1732588 1
7.4099331 3.6809092 2.2169764 83.25
-0.46320987 3.8085124 2.0749874 35
3.0488932 3.816932 2.1245003 1
7.3379426 3.80866 2.2157078 84
7.3646574 3.7652094 2.2162316 101.2
-0.44827771 3.8189356 2.0750175 78
-0.39721084 3.8499215 2.0750592 87
-0.30354285 3.8939052 2.0749624 83.199997
2.9892926 3.9084058 2.1293294 30
7.3183928 3.8761652 2.2160342 97.14286
-0.2051723 3.9409063 2.0749328 80.5
-0.11658406 3.9927001 2.0751295 82.199997
2.9688478 3.9372184 2.1308508 13
7.2466764 4.016181 2.215287 98
7.2753057 3.9632044 2.2156212 98.333336
-0.065733671 4.0280228 2.0753727 92
0.0063934326 4.0579205 2.0753806 89.166664
0.062297821 4.0877762 2.0755329 61
2.8945003 4.0734158 2.1380951 4
7.2183843 4.0791035 2.2152116 99.428574
0.026484728 4.1525183 2.0770502 36.333332
7.1398277 4.216794 2.214366 99
7.1707783 4.1642923 2.2147141 99.666664
-0.020662069 4.2478199 2.0792575 24
2.7974889 4.2489624 2.1474454 1.5
7.1164122 4.276392 2.2145679 98
-0.076328754 4.3631573 2.0819435 21.75
2.7141299 4.3737783 2.1393394 16.6
2.79107 4.3602848 2.0804982 1
3.2142987 4.3787346 2.0859818 1
7.0388474 4.4105434 2.2139585 92
7.0706158 4.3575358 2.2142315 97
-0.1323607 4.4697957 2.0844772 29
2.626951 4.4913578 2.1603882 1
2.7077684 4.4573307 2.082844 14.5
7.008008 4.4757805 2.2140517 96.571426
-0.18528438 4.5665069 2.0868051 28.333334
2.6342773 4.5690269 2.0857594 3
6.9429111 4.6172857 2.2144513 97
6.9680672 4.5660963 2.2143614 97.599998
-0.2290318 4.6581373 2.0889826 31
6.9061766 4.6794338 2.2143171 98.571426
-0.28750539 4.763772 2.0915582 24.333334
6.8437061 4.8067064 2.2147133 99.5
6.86761 4.7646208 2.2147121 99.25
-0.34966636 4.8858805 2.0945201 28
-0.31469607 4.8339329 2.0932081 28
6.7982488 4.8639908 2.2141781 80.714287
-0.38719344 4.9669275 2.0964773 27
6.7318554 5.0082092 2.2150583 39.333332
6.7634506 4.9576693 2.2150931 39.5
-0.45437121 5.1002293 2.0997429 27
-0.42446589 5.0489683 2.0984623 27
6.70436 5.07657 2.2157023 40
-0.47942185 5.1478319 2.10092 24
6.6423488 5.1976032 2.2163527 40
6.6692734 5.1513147 2.2162266 41.25
6.6035347 5.2691903 2.2167056 37.142857
6.5386972 5.3918047 2.2174592 33.5
6.5598683 5.3362503 2.2167642 32
6.4937525 5.4762702 2.2180343 34.666668
6.4353061 5.5887527 2.2189298 33
6.4627128 5.5535827 2.2190034 34
6.3922825 5.6670527 2.2195156 29.333334
6.3304663 5.7855587 2.2206025 31
6.3568363 5.7436085 2.2203798 30
6.2932405 5.8624053 2.2214661 29.6
6.2283306 5.9861178 2.2227368 28.5
6.2610579 5.9327998 2.2223556 31
6.1801023 6.0705528 2.2235124 27.6
6.1232843 6.1834517 2.2248936 27
6.1504374 6.1338305 2.2243562 30
6.0746193 6.2755842 2.2259889 26.799999
6.0234632 6.3663731 2.2269976 25.25
5.975955 6.4710903 2.2286177 26.4
5.9215689 6.5667911 2.2297597 24.75
5.8395429 6.7021317 2.2312832 24
5.8747182 6.6566243 2.2310176 24
5.8136396 6.7734947 2.2327032 24
-0.076492071 -1.6232746 2.204525 28.75
-0.015241146 -1.6303458 2.2032721 64
0.10347486 -1.5581846 2.1977127 20
0.18884706 -1.5114181 2.193907 19
0.25827312 -1.4766145 2.1909349 19
0.33983302 -1.4313009 2.1872821 20
0.41174245 -1.393034 2.1841273 22
0.50462937 -1.3455622 2.1801317 21
0.5985508 -1.2960517 2.1760402 22
0.68846965 -1.2493458 2.1721568 21
0.7722218 -1.2075608 2.1686113 21
0.82692957 -1.1793029 2.1662621 19
0.91079021 -1.1342621 2.1626 23.5
0.97911024 -1.1016543 2.1597807 21
1.0254042 -1.0786512 2.1578383 24
1.1004057 -1.0382318 2.1545734 24
1.174983 -0.9972024 2.1512988 24
1.2239563 -0.95796657 2.2078824 47.42857
1.3157456 -0.92184806 2.1989496 29.333334
1.3780236 -0.88999772 2.2217493 24
1.4337356 -0.86188579 2.2180283 30
1.5132792 -0.81815195 2.2125232 30
1.5652759 -0.79163241 2.2090502 28
1.6226058 -0.75900578 2.2050347 32
1.7120788 -0.71472764 2.1991704 47
1.821897 -0.6555078 2.1917195 33.666668
1.9091719 -0.61220002 2.2520242 37
1.9439446 -0.55804396 2.1815965 40
2.0165706 -0.55404568 2.2420805 33.5
2.1125717 -0.51126146 2.2339661 14.4
2.1583266 -0.49982822 2.2308307 3
2.2121983 -0.42136741 2.1930597 8.25
2.2635021 -0.26467454 2.2617972 54.5
-0.075950146 0.64707518 2.1466253 8.5
0.004117012 0.69101626 2.1432326 16
0.12211585 0.77288085 2.1380742 52
0.10413098 0.85018641 2.1379423 66.800003
7.2451825 2.1791599 2.269886 11
7.61273 2.3992689 2.3013921 68.599998
7.5734415 2.4790592 2.2995141 87.375
7.5246906 2.5694222 2.2971926 83.571426
7.5983915 2.6577463 2.3043568 19
7.7187109 2.7192605 2.3146584 21
-1.9619715 2.7468147 2.0799909 23
-1.9201066 2.7797391 2.0796912 29.333334
7.7953115 2.7603889 2.3212554 21
7.8738337 2.8110642 2.3281767 70.5
7.833622 2.8988233 2.3267789 96.199997
7.8661938 2.8478646 2.3282773 100
7.7885399 2.9766359 2.3249347 88.14286
7.7276101 3.07897 2.3225491 79.14286
7.7644978 3.0296285 2.3242342 65
7.6791697 3.1772676 2.3211899 80.75
7.6210384 3.2874715 2.3195784 78.571426
7.6559815 3.2393732 2.3209555 80
7.5740995 3.3799329 2.3185277 80.571426
7.5172586 3.4813373 2.3171601 81.714287
7.5555744 3.4358554 2.3186734 84
7.4437084 3.6251438 2.3160369 86
7.4705758 3.5728028 2.3164148 80.285713
7.4198446 3.6788208 2.3159711 82.571426
3.0397658 3.7360659 2.1775088 1
7.370595 3.769676 2.3153377 84
-3.2186124 3.8568392 2.1053526 67.666664
7.3214636 3.8787384 2.3154573 93.14286
7.3505096 3.8268883 2.3157649 78
-3.2804663 3.972518 2.1073253 74
-3.2176321 3.9104228 2.1059146 46
7.2769632 3.974304 2.3156192 94.714287
-3.3145292 4.0718026 2.1088302 93.5
7.2235613 4.0835991 2.3158143 95.285713
7.2570372 4.0333757 2.3162975 97
-3.2617238 4.1217184 2.1087966 70
-3.1861451 4.1634922 2.1084323 67.25
7.1769376 4.1800623 2.3161795 96.428574
-3.1046278 4.216114 2.1081512 74
-3.0058129 4.2584348 2.1075821 46.5
-2.9346907 4.2977037 2.1072998 70
7.121789 4.2821083 2.3163471 95.625
-2.8827889 4.3173971 2.1069908 45
-1.5715005 4.3595028 2.0942104 28
-1.5258977 4.3346872 2.0933826 34.5
-0.16094851 4.3388176 2.1977797 4.5
7.0465107 4.4078212 2.3163099 100
7.0736446 4.3708053 2.316612 96.599998
7.0189285 4.4767737 2.3172808 98.333336
7.0520153 4.4340124 2.3176866 96
6.9444766 4.6084247 2.317945 90
6.9735508 4.5611515 2.3178229 97.666664
-2.2747781 4.6580753 2.1056111 72.5
6.9205551 4.6729407 2.319149 98.285713
6.8441219 4.8205419 2.3207698 100
6.8703003 4.7681966 2.3201056 97.666664
6.8003492 4.8670297 2.3201869 79.14286
6.7413683 5.0086575 2.3229804 42
6.763876 4.9588032 2.3220716 44
6.7105479 5.0720682 2.3240612 42.666668
-0.50872684 5.1995802 2.1022129 24
6.6432981 5.2125125 2.3266745 42
6.6663003 5.1625175 2.3256657 40.799999
-0.53626847 5.2638712 2.1037781 37
6.6130929 5.2692804 2.3276374 40.666668
-0.5901134 5.3660994 2.1063266 28
6.5375128 5.3920832 2.3292925 34.5
6.5701752 5.35221 2.3291733 36.25
-0.63491607 5.4465666 2.1083508 30
6.5069232 5.4674807 2.3312607 35.5
-0.67130208 5.5365367 2.110558 90.666664
-0.60191941 5.588522 2.1114428 98.800003
6.437501 5.6110311 2.3345621 30
6.4634819 5.5559816 2.3332367 35.25
-0.50177312 5.6398392 2.112232 99.800003
-0.40336728 5.6896081 2.1130552 95.800003
6.3956394 5.6752529 2.3355627 29
-0.30287433 5.7355142 2.113842 96.400002
-0.21778131 5.7823982 2.1147547 89
6.3295946 5.8044906 2.3386366 31.5
6.3541203 5.7590833 2.3376026 28
-0.16716123 5.8197098 2.115557 87.5
-0.098335266 5.851635 2.1162124 95.400002
-0.012734175 5.8928275 2.1171052 98.5
6.2904158 5.8779168 2.3403852 29.333334
0.035405397 5.931457 2.1180284 97
0.10802293 5.9582353 2.1186428 98.400002
0.18027043 5.998239 2.1196346 100
6.2361889 5.9846754 2.3431456 30
6.249331 5.9518371 2.3421121 30
0.22364473 6.025969 2.1203485 98.5
0.29889297 6.0607409 2.1212685 100
0.37491345 6.092834 2.1221488 100
0.41365147 6.1268091 2.1230969 95.333336
0.49452949 6.1553078 2.1239505 100
0.55897307 6.1868834 2.1249039 98.5
0.61052227 6.2184801 2.12587 99.25
0.6994822 6.2638936 2.1273291 95
0.78021574 6.3073983 2.1287661 92.666664
0.82802844 6.3246651 2.129396 90
0.89698458 6.3660955 2.1308172 91.166664
0.97824383 6.405066 2.1322458 89.666664
1.0175219 6.4390516 2.1334031 90
1.0927444 6.4682336 2.1345944 90
1.1648688 6.5026407 2.1359603 89
1.2159445 6.5349545 2.1371949 92.25
1.2964396 6.5743542 2.1388326 89.599998
1.3601604 6.60359 2.1401007 89
1.4120471 6.635952 2.1414225 90.5
1.5004208 6.6833458 2.1434841 93.833336
1.6008937 6.7299013 2.1456687 94
1.6794763 6.7731071 2.1476433 93.75
5.7774248 6.8184786 2.2329471 24
5.7361903 6.9143577 2.2346861 25
5.7655911 6.8756285 2.2343974 24.5
5.7056456 6.9833522 2.2359281 23.666666
5.6399355 7.1193862 2.2382452 25
5.6624899 7.0521111 2.2367742 23
5.6033993 7.1724396 2.2388253 23
5.532012 7.3039031 2.2409091 21
5.5607281 7.2498488 2.2400243 22.5
5.4978561 7.3784957 2.2423143 22.333334
5.4343791 7.4755516 2.2435918 21
5.4588404 7.4442954 2.2432973 23
5.4005098 7.563087 2.2454762 23
5.3301635 7.7010789 2.2479787 23
5.3529792 7.6514835 2.247 22.5
-0.2993257 -1.7156544 2.213433 100
-0.34180331 -1.6681428 2.2128243 22.5
-0.31970811 -1.686264 2.2129002 87
0.50488186 -1.3419969 2.2814279 7
0.59514165 -1.2960975 2.2752535 51
0.64241505 -1.2748554 2.2721725 22
0.71027422 -1.2377043 2.2674007 24
0.76975584 -1.206018 2.2632689 20
0.82442904 -1.1778433 2.259526 20
0.8931427 -1.1459858 2.2550206 23
0.9795177 -1.0977967 2.2489247 21
1.0808835 -1.0030394 2.3087592 6.5999999
1.0492415 -0.98214006 2.3264151 1
1.3780038 -0.88677382 2.3009133 28
1.3266854 -0.83043098 2.2997804 11
1.436975 -0.84286427 2.2944651 40.666668
1.5022626 -0.82545519 2.2896001 33.5
1.5592902 -0.79426527 2.2842007 31
1.412647 -0.77713394 2.2911103 35
1.6227546 -0.76333189 2.2784851 26.333334
1.7227144 -0.70862317 2.2690656 42.666668
1.6129236 -0.62632227 2.2690411 64
1.8092461 -0.66538334 2.2612517 33.333332
1.9260594 -0.58539224 2.314625 12
1.8333745 -0.50138545 2.3134315 3.7142856
1.8936713 -0.55801713 2.3143249 5.5999999
2.1238501 -0.49644339 2.2930706 14.2
2.1810026 -0.49168086 2.288944 8
1.7439954 -0.41871619 2.3128016 8
1.7845914 -0.44787979 2.3122816 5.375
2.1923544 -0.47921264 2.2870052 7
2.2279811 -0.33211529 2.2705419 58.5
2.2671218 -0.28984582 2.263936 49
-1.1555145 -0.21438968 2.1979241 31
-1.1366231 -0.26506972 2.1982477 20.5
-1.2023933 -0.13343847 2.1980495 31
-1.2657754 -0.017765045 2.1982534 31
-1.2396867 -0.06725359 2.1981764 31
-1.3094819 0.06657517 2.1984336 31
-1.3719432 0.17482531 2.1990213 24.200001
-1.3394196 0.12549472 2.1985865 28
-1.4494526 0.29118288 2.2001944 7
-1.4190848 0.25043297 2.1996491 13.75
-1.5256307 0.33375156 2.2023826 2
-1.4316995 0.32337701 2.199151 2
-2.0710986 0.58365816 2.2194538 66
-1.7669451 0.66549104 2.2076671 73.333336
-1.7390544 0.70897287 2.2062876 86
-1.7355721 0.75891292 2.205771 81.5
-1.7208188 0.85886604 2.204525 72.833336
-1.950721 0.94739985 2.2124279 6
-1.9168217 0.95015591 2.2111685 37
-1.7919934 0.9205997 2.2067468 17
6.0180779 1.5019853 2.4243414 46.599998
6.0508356 1.5262086 2.4309936 49
6.0865941 1.5436457 2.4382241 49
6.2430391 1.6281184 2.4125805 33
6.2852325 1.6533335 2.4202397 48
6.3728371 1.6970913 2.4360838 47.25
6.4363003 1.7317044 2.4476542 45
6.5315075 1.7962716 2.4009163 19
6.5771589 1.8124115 2.4080017 40
6.6239004 1.8388238 2.4154429 39.333332
6.712472 1.8826387 2.4294617 37
6.7618504 1.9114503 2.4373827 39
6.8069639 1.9350564 2.4445786 41
6.872376 1.9682633 2.4550071 36
6.9726229 2.014874 2.3957722 22
-2.7503555 2.1007929 2.2420232 3
7.0142908 2.039763 2.4014475 29.5
7.1033115 2.086946 2.4134786 27.666666
-2.6878064 2.1405027 2.2399483 7.3333335
-2.1724813 2.1264222 2.2210102 3
7.2111764 2.1460767 2.4281311 28
7.3210001 2.2009587 2.4429679 25
-2.4401977 2.2565224 2.2316258 35
7.3995328 2.2447486 2.4536986 24.5
7.4982886 2.2971833 2.4375257 21
7.612453 2.3779547 2.3919456 76.166664
7.5891495 2.4758768 2.3916202 94.777779
7.5339522 2.5764985 2.388391 90.166664
7.5548677 2.5507455 2.3898585 99
7.6021233 2.6582475 2.3971276 20.5
7.6955566 2.7114642 2.4076972 18
7.7684793 2.7504978 2.4158893 22
7.8824759 2.8137116 2.4287596 64.5
7.8319836 2.9136858 2.4264989 100
7.8710756 2.8644779 2.4289832 100
-2.8261821 2.9812284 2.2525947 26
-2.7314298 2.995491 2.2494202 3
7.7993622 2.9802351 2.4252284 95.14286
7.7277765 3.0864234 2.4215229 73
7.7591782 3.0351479 2.4229612 70
7.6857958 3.180131 2.4205396 74.25
7.6336308 3.2850702 2.4191823 76
7.653738 3.2377443 2.4194283 72
7.5872564 3.3779607 2.4181943 77.25
7.5322003 3.4864421 2.4172111 81.400002
7.549818 3.4490602 2.4173856 81
7.4885941 3.5747793 2.4167423 83
7.428833 3.6808355 2.4157465 51.599998
7.4518585 3.6467261 2.4163752 86
7.3313408 3.8044636 2.4124749 22
7.3741102 3.7540455 2.4140263 12.857142
-1.49244 3.8673356 2.223192 3
-1.4394748 3.8196919 2.2203984 3
7.3160686 3.8929012 2.4152081 48
7.3482409 3.8430901 2.4157338 2
7.2780585 3.9751136 2.4157937 74.571426
-0.20752597 4.0322261 2.301995 2
7.2348976 4.0833893 2.4173751 96
7.2502966 4.0280161 2.4159541 91
7.1955214 4.1757507 2.4187007 100
7.1282082 4.3078928 2.4199836 100
7.1553459 4.2508631 2.41922 100
7.0913062 4.3772955 2.4206932 100
7.0288916 4.4864645 2.4216714 99.833336
7.0610867 4.4320378 2.4212303 100
6.9827814 4.5710764 2.4227977 99.833336
-2.1780565 4.7022457 2.2654548 77
6.9262366 4.6908665 2.4253302 100
6.9571047 4.6441021 2.4249907 100
-2.1560495 4.7175159 2.2652125 80
-2.0965192 4.751646 2.2643862 79.5
-2.0176909 4.7884779 2.2630954 71.5
6.8841043 4.7721815 2.4269311 100
-1.9878762 4.8121719 2.2628963 73
-1.8970015 4.8950062 2.2626696 3
-1.8112791 4.897397 2.2603006 80.333336
6.8021016 4.8821568 2.4274306 86.5
6.8494482 4.8518357 2.4291105 100
-1.7688167 4.9243126 2.2599025 81
-1.699229 4.9618464 2.2590954 72.599998
-1.6305997 4.9998069 2.2583604 84
-0.46474242 4.9444408 2.2264009 12
6.7791891 4.978765 2.431726 44.833332
-1.5945861 5.0164204 2.2578914 92
-1.5101354 5.0545073 2.2568061 77.400002
-1.4361746 5.1005707 2.2563062 65.5
-0.98855948 5.0455456 2.2428532 91
-0.90359521 5.0847445 2.2420688 74.5
6.7204976 5.0858679 2.4342227 38.166668
6.7471352 5.0284395 2.4324994 40
-1.3909142 5.1216326 2.2557974 32.5
-0.86099887 5.1176472 2.2421632 3
-0.79962707 5.1355639 2.2413011 57.75
-0.67814946 5.1960535 2.2405779 90.5
6.6749315 5.1747437 2.4366808 38.799999
-0.65636659 5.2174106 2.24085 100
-0.59755063 5.2481947 2.2406332 99.800003
-0.54280353 5.2956605 2.2411666 66
2.92923 5.23176 2.2937541 19
2.9952722 5.2480688 2.2952216 16
6.6232567 5.2842684 2.4402118 39.75
6.6496058 5.2362819 2.4388955 43
-0.56950259 5.3604569 2.2442141 36
6.5751433 5.3745961 2.4429049 35.857143
-0.61711955 5.4450603 2.2484889 33.5
6.51402 5.479321 2.4458401 34.833332
-0.67016101 5.5487051 2.2536225 100
-0.60520101 5.5903678 2.2538421 100
6.4741163 5.541955 2.4474676 38
-0.50505328 5.6416969 2.2537665 100
-0.40490222 5.6903934 2.2536929 99.199997
-0.31009459 5.7424822 2.2539685 99
-0.21223712 5.7911057 2.2541487 93.599998
-0.15596461 5.8212886 2.2543902 96
-0.10192275 5.8543153 2.254838 98
-0.018931389 5.8994627 2.2553508 99.5
0.034830093 5.9303923 2.2558002 100
0.10373616 5.9618888 2.2560763 100
0.17389607 6.0053349 2.2569129 100
6.2177262 6.0077338 2.3434339 30
0.21806145 6.0311298 2.2574048 100
