# .PCD v0.7 - Point Cloud Data file format
VERSION 0.7
FIELDS x y z intensity
SIZE 4 4 4 4
TYPE F F F F
COUNT 1 1 1 1
WIDTH 1340
HEIGHT 1
VIEWPOINT 0 0 0 1 0 0 0
POINTS 1340
DATA ascii
1.7843499 6.1469593 2.9411831 1
3.4731483 6.1221747 2.99543 19.5
6.8833075 -2.4323695 3.0900474 6
6.8642569 -2.3559296 3.0817122 19
6.8572474 -2.2501047 3.0735512 24.5
6.9506845 -2.1718097 3.0839119 14
6.9305954 -1.3051151 3.0363324 74
6.8846941 -1.2207754 3.025219 82.5
6.9114914 -1.2688351 3.0316439 78
6.8601437 -1.155267 3.0186203 84
6.7903156 -1.0184691 3.00195 73
6.8212709 -1.0743859 3.0091276 81
-2.5888855 4.258534 3.0050757 28
-2.6146452 4.3330412 3.0179257 38
-2.6294253 4.4428396 3.0342486 17.5
-2.715472 4.5585885 3.0596013 3
-2.6120229 4.5173135 3.0422363 3
-1.9369624 4.7592154 3.0050757 3
-1.9177573 4.8211617 3.0123689 3
4.0427523 4.9514265 3.0067427 28
3.9855423 5.0721684 3.0203567 29
4.0079231 5.0293837 3.0156684 28.5
3.9566364 5.1483026 3.0297337 29
3.8979766 5.2768545 3.0450149 26
3.919261 5.228178 3.0391107 28
3.8852069 5.3462105 3.0549126 33.5
3.9016984 5.3787489 3.0613377 19
3.8549907 5.4545293 3.0696728 69.5
-0.23208821 5.5680389 3.0137582 8
-0.14565229 5.5368805 3.0047283 81.75
-0.052668452 5.5737414 3.0073333 98.833336
3.7945192 5.5945253 3.0873849 75
3.8168268 5.5427437 3.0807862 74.333336
-0.28031492 5.6206331 3.0248716 3
0.047822952 5.6229534 3.0120912 100
0.15159261 5.6671557 3.0162473 100
3.7692246 5.6429696 3.0932889 72.666664
0.25567907 5.7142782 3.0212598 100
0.35105509 5.7618785 3.0269554 100
0.40657222 5.7996764 3.0321648 100
0.4373371 5.8047857 3.0323386 61.5
0.46869045 5.964632 3.0596013 3
3.4562418 6.2420578 3.011704 57
3.392679 6.3735104 3.0273752 56.5
3.4223683 6.316081 3.0205944 54
3.3584685 6.4560828 3.037622 53
9.0342407 -3.9607265 3.1297562 19.75
9.1340551 -3.907424 3.1381807 67
9.1981068 -3.8871226 3.1444349 61
9.2494736 -3.8428671 3.1479239 34.666668
9.2738476 -3.7523434 3.1457968 10.333333
9.2693853 -3.6655006 3.1406059 46
9.3174324 -3.636205 3.1446905 37
3.7300501 5.7419634 3.1063995 67.25
3.6778107 5.8687339 3.1232724 73.666664
3.7003517 5.8113375 3.1155159 71
3.6388412 5.9496555 3.1338069 65.666664
3.5856228 6.0615935 3.1486249 67
3.6115179 6.0018678 3.1405213 63
3.562211 6.1249995 3.1575389 63
2.1150987 6.645793 3.1828914 5
8.7759838 -3.8668017 3.2965 12.5
8.8577871 -3.82464 3.3047376 60
8.9471245 -3.785207 3.314281 60.5
9.0375423 -3.7449706 3.3240252 61.333332
9.1166019 -3.7151494 3.3329659 62
9.1595211 -3.6862264 3.3370345 63
9.2577353 -3.6465924 3.348135 61
8.4651833 -3.743464 3.4411063 5.5
8.4691849 -3.6496885 3.4342473 22
8.4906816 -3.5496223 3.4298191 24.333334
8.5090532 -3.4643803 3.4262304 23.666666
8.4616833 -3.3502553 3.4101391 8.333333
8.4736891 -3.2495019 3.404727 13.5
7.8799286 -4.4588599 0.76832843 3
8.1043978 -4.3695321 0.75572443 3
7.8431463 -4.4214029 0.9572202 2.5
7.9256401 -4.3898392 0.95354474 3
8.0033226 -4.3678422 0.94912958 3
8.3384275 -4.178267 1.1237491 11
8.374218 -4.1547227 1.1232364 10
8.7214985 -4.2295632 1.0902762 3
8.7867384 -4.2056246 1.0874321 2
8.4200191 -4.1372929 1.1213872 6
8.512826 -4.1528759 1.1129862 2
7.8520584 -4.4042363 1.1372981 8.5
7.9236555 -4.38026 1.1346389 6
7.9672613 -4.3474803 1.1347511 10
8.0109386 -4.3144283 1.1348268 10.666667
8.0972719 -4.2823319 1.1316994 9.666667
8.1503935 -4.2540803 1.130528 7
8.2131462 -4.2342982 1.1278026 5
8.2804756 -4.2012572 1.1259258 6
8.0348091 -4.2927866 1.3147922 7
8.0920734 -4.2716184 1.3134352 7
8.1348505 -4.2523503 1.312674 7
8.1978312 -4.2159657 1.3121364 7
8.2731247 -4.1722651 1.3114417 7
8.7193747 -4.203855 1.2839609 4
8.3277464 -4.1469278 1.3103859 7
8.4101019 -4.1233606 1.3075984 5.6666665
8.8224611 -4.138464 1.2829441 4
8.888072 -4.1481194 1.2784251 4
6.7555161 -1.2211854 1.2487469 4
6.495265 -0.6599136 1.322248 4
6.5000477 -0.62792498 1.3234022 3
7.8426151 -4.3743529 1.3182011 7
7.8999767 -4.3372498 1.3182783 7
7.9798269 -4.3169065 1.3157516 7
4.835629 -3.2293417 1.3377782 4.3333335
4.9192629 -3.1890643 1.3379138 3.8571429
5.0033941 -3.1641328 1.3357162 3
6.8255005 -1.4009471 1.3471017 3
6.791913 -1.3408039 1.3550959 4
6.5956669 -0.90821725 1.4054072 6.4000001
6.5707541 -0.832555 1.4127069 6.3333335
6.4757729 -0.58917743 1.3290288 3
6.4635925 -0.55404806 1.3326924 4
6.2462206 -0.084607601 1.3856351 5.6666665
6.2782488 -0.13417786 1.3790817 3.6666667
6.2222586 -0.0087860823 1.3918352 5.8571429
6.1504946 0.13476178 1.4068599 5
6.1814795 0.082235038 1.4007633 5.1999998
6.1227579 0.19367467 1.4125236 5.6666665
6.0818806 0.28676981 1.4207661 4.2857141
6.0461369 0.38245603 1.4279468 3.8
6.0643272 0.35669094 1.4248109 4
8.0429859 -4.2764554 1.4944165 5
8.071167 -4.2470198 1.4953636 5
8.1989126 -4.1764898 1.4953865 5
8.2473221 -4.147316 1.4955062 5
8.2969475 -4.1180291 1.4955542 5
8.3896427 -4.1012301 1.4931871 5
8.7031565 -4.1341949 1.479315 6
8.8126488 -4.1413808 1.4746774 6
3.7201831 -3.6692178 1.3241 7.75
3.7550995 -3.6534288 1.3255839 11
3.8122573 -3.629884 1.3275211 7.4285712
3.9067044 -3.5992 1.3291953 4.1999998
3.9673619 -3.5811722 1.3298481 5
4.0283823 -3.5473504 1.3327452 5
4.1558232 -3.4888361 1.3364449 3
4.2060223 -3.4684103 1.3373134 3.6666667
4.2545271 -3.4438341 1.3387997 5
4.3093891 -3.4152427 1.3404467 5
4.3975906 -3.3809905 1.3411503 5.1999998
4.4445105 -3.3539033 1.3426899 7
4.513051 -3.3301942 1.3424616 4.5714288
4.6603613 -3.2678947 1.343049 3
4.7121034 -3.2330635 1.3448482 5
4.8013554 -3.2286921 1.3400092 5
6.934412 -1.784375 1.4332139 6
6.9795723 -1.7738807 1.4299622 10
6.9431973 -1.6883564 1.4389532 6.6666665
6.9661903 -1.7381191 1.433574 12
6.8934975 -1.5970421 1.4494135 6
6.8414736 -1.4767692 1.4618284 8
6.8775215 -1.5307171 1.4551458 5
6.8194342 -1.4121575 1.467869 6
6.7865429 -1.3241174 1.4762553 8
6.6256514 -1.1840439 1.4993306 1.6666666
6.6771584 -1.2386637 1.4913838 5
6.6080828 -1.1422162 1.5033827 3
6.6067209 -1.0189247 1.5104282 6.1428571
6.5876312 -0.9093526 1.5180825 10
6.5801935 -0.85570818 1.5215554 1
6.2355738 -0.086657166 1.4872606 6.6666665
6.2626133 -0.11983502 1.4828094 5
6.2126055 -0.025762707 1.4920969 10.2
6.106205 0.19866872 1.5115293 6.1999998
6.0499601 0.31293234 1.5210079 7.5
6.074235 0.27301306 1.5171765 10.6
6.0244336 0.39017594 1.5020372 7.75
6.0038137 0.49535695 1.435917 4.4285712
5.8019924 0.80526268 1.4672939 5
5.7096167 0.89888185 1.4803658 5.8571429
5.8037949 0.8512103 1.4669262 7
5.6755018 0.95243353 1.4849178 7
5.6597567 1.22123 1.4830511 10.5
5.679348 1.1904513 1.480886 10.833333
5.6326962 1.2932479 1.4852014 12.125
5.5940809 1.3955936 1.4878128 14.666667
5.5420523 1.4986482 1.4917099 11.714286
5.5685654 1.4541273 1.4895586 15
5.5025282 1.5921204 1.4936323 9.2222223
5.4471059 1.7130253 1.495994 12
5.4700766 1.6609261 1.4952196 9.666667
5.4145622 1.7947998 1.4964273 9.25
5.3550358 1.9198825 1.4976726 8.5
5.3808374 1.869386 1.4970515 9.3999996
5.3233356 1.9885099 1.4978117 8.75
5.2541652 2.1292844 1.4978027 8
5.2851658 2.0815227 1.4969666 9.75
5.258029 2.1599603 1.4952612 8
5.1954231 2.261997 1.4958875 5
5.1338673 2.4104955 1.4920492 8.8000002
5.1002436 2.4943511 1.4892015 12.888889
4.9302578 2.5899827 1.5003748 8
5.0461884 2.6121275 1.4853885 12.8
5.0722942 2.5684335 1.4862133 13
5.0064058 2.6926429 1.4826272 14.571428
4.9616041 2.8071985 1.4768401 15
4.9767475 2.7700369 1.4787215 15.8
2.9307775 -4.0311747 1.385006 3.5
2.9945412 -3.987242 1.3914567 8
3.5992026 -3.7159941 1.4252253 3.6666667
3.6921012 -3.6726487 1.4295456 11.4
3.7413807 -3.651551 1.4314556 7.5
3.8043416 -3.6228912 1.4339819 12.857142
3.9040937 -3.5824172 1.4370656 8.4285717
3.9632187 -3.5643547 1.4379668 9
4.0157151 -3.5316422 1.4408357 4.2857141
4.1531672 -3.461828 1.4458319 6
4.2110262 -3.4385815 1.4469223 4.2857141
4.3088694 -3.3926227 1.4493785 7.7142859
4.4025822 -3.3384907 1.4526802 9.5714283
4.5032358 -3.2949622 1.4540493 11.285714
4.569191 -3.2674232 1.4546566 15
4.617712 -3.2430427 1.455497 15.4
4.6977062 -3.2077985 1.4561164 19.5
4.8129435 -3.2156122 1.4497383 15.6
4.908309 -3.1825936 1.4489014 10
4.9669061 -3.1520154 1.4494696 11
0.14717102 -1.9911537 1.3762285 1
0.14460647 -1.9000547 1.3898714 1
0.15983558 -1.8909578 1.3934325 1
0.13017452 -1.8048339 1.4022405 1.6666666
6.9274311 -1.7663734 1.5609334 21
0.10414135 -1.7117355 1.4122345 3
6.6891603 -1.6979811 1.5807981 9
6.7945442 -1.726387 1.5721245 6
6.9442568 -1.7073255 1.5632401 17
6.9632635 -1.7327292 1.5605062 23.5
0.049019933 -1.5743084 1.4237132 3
0.07408905 -1.6188872 1.4212047 3.4285715
6.899621 -1.6050613 1.5720813 16.5
0.02208066 -1.5521936 1.4226353 2
6.8735781 -1.5447066 1.5772247 6
6.726203 -1.3067064 1.6001515 13.166667
6.6101246 -1.1743922 1.6150343 8
6.6597824 -1.2190359 1.6093028 12
6.6210995 -1.1247139 1.6167475 3.5
6.6123762 -0.98182839 1.6242434 15.5
6.6111917 -0.95534271 1.6255591 14
6.5219755 -0.72200066 1.5336788 4
6.4480972 -0.58149546 1.54724 9
6.4764595 -0.62139386 1.5427223 6.5
6.4222727 -0.55186939 1.5510343 8
6.3111353 -0.27350748 1.5730495 14
6.2806301 -0.20807689 1.5783675 15.833333
6.2430105 -0.11295539 1.5852569 12.5
6.1945019 -0.011760831 1.5931524 9.7142859
6.0964012 0.098156989 1.605903 3.8571429
6.0400453 0.21418568 1.614341 1
6.1042929 0.16806763 1.6068953 7.3333335
5.9568906 0.31360674 1.6246998 2
6.0164108 0.27010596 1.6179024 3
6.0666828 0.26814282 1.6128826 7
5.9860077 0.3810696 1.6230476 9.5714283
5.8184848 0.60127038 1.5537159 6.25
5.750843 0.73382145 1.5628444 13
5.7758803 0.69588596 1.5596086 11
5.7445898 0.77784997 1.5637195 7.25
5.7982178 0.79840714 1.5571764 5.3333335
5.7036595 0.88932431 1.5686244 7.5
5.8226252 0.8509109 1.5542231 13
5.6722121 0.94325614 1.5722377 7
5.603364 1.1877897 1.5779339 3.2857144
5.6777353 1.1512173 1.5695783 1
5.6136427 1.2799284 1.575089 9.5714283
5.5267701 1.5119414 1.5796592 13
5.4793882 1.6158962 1.5818484 13
5.4374485 1.7148309 1.5830626 16.4
5.4001646 1.7964768 1.5839944 15
5.3703289 1.863095 1.5844581 15
5.299284 2.0238307 1.5845251 23.666666
5.2859173 2.0524514 1.5844783 23
4.3972297 2.6061313 1.5553374 1
7.5809097 -4.5097618 1.6674347 3
7.662961 -4.4956746 1.6670098 3
7.6401405 -4.4429231 1.6701866 3
7.6562958 -4.4243832 1.6709421 3
7.8299379 -4.3327122 1.6731336 14
7.8915329 -4.2815838 1.6748196 21
7.9504051 -4.2615147 1.6748998 23
8.003747 -4.2213321 1.6760802 21.5
8.1127005 -4.1866641 1.675998 24
8.2064714 -4.1419401 1.6766191 24.5
8.2951603 -4.0922217 1.6775186 26.666666
8.3624163 -4.0741582 1.6771908 21
8.5411873 -4.098259 1.6727018 7
8.7103596 -4.131197 1.6679139 11
8.3945103 -4.0462704 1.6779716 12
3.6245794 -3.7023594 1.5313492 3.5
3.692601 -3.6785328 1.5334413 3.4000001
3.7260411 -3.6475699 1.5366056 4
3.7942133 -3.6309407 1.5376916 3
3.8826678 -3.5838001 1.5417899 3
3.9246287 -3.5476787 1.5451697 3.5
4.0033698 -3.5170863 1.5472414 3.2857144
4.2020221 -3.4170008 1.5541967 8.75
4.2863111 -3.3794432 1.556283 11
4.3216038 -3.3482523 1.5587307 12
4.3876686 -3.3354411 1.5583787 9.8000002
4.4995141 -3.2841444 1.5606686 8.666667
4.5806589 -3.2667356 1.5600865 7
4.5482283 -3.2586551 1.5618842 9
4.6191669 -3.2402124 1.5616142 7.5
4.6996126 -3.218524 1.5612521 5.3333335
4.8207617 -3.208226 1.5582356 4
4.8710661 -3.1822009 1.5590525 5
5.0110388 -3.1251922 1.5594653 3.3333333
0.26283956 -2.2560306 1.5047318 5
0.25997376 -2.2303402 1.5075994 4.5
0.11998212 -1.8700979 1.4635179 4
0.099075675 -1.7990403 1.4701936 5.2857141
0.053060174 -1.6821835 1.4791908 22
0.074697375 -1.7096102 1.4785664 17
0.016149521 -1.6404109 1.4794424 7
0.043927431 -1.5311811 1.4289801 2
-0.060194492 -1.3560386 1.4359579 1
-0.021172523 -1.3989108 1.4366608 1.3333334
-0.071173906 -1.3036668 1.4408877 1
-0.27268171 -1.0615313 1.5019295 1
-0.19227886 -1.1021624 1.4499021 1
-0.27889276 -0.99532884 1.4800488 1.1666666
-0.23515248 -1.0543499 1.5085578 1
6.5431309 -1.0377235 1.6264942 5.3333335
6.5769453 -1.0046239 1.6256863 7
-0.27172685 -0.91670746 1.4642565 1.1
-0.24033737 -0.87191886 1.461483 1
-0.40251946 -0.77293462 1.5071381 2
-0.28882217 -0.80942708 1.4588392 1.75
-0.45257974 -0.66963691 1.5070533 3.25
-0.39047623 -0.69493586 1.4805968 1.9090909
-0.32709575 -0.73056632 1.4593093 2
-0.4756422 -0.60733908 1.5078429 2.5
-0.39589882 -0.604886 1.45744 1
6.4525824 -0.57841057 1.6531286 12
6.4565859 -0.57892007 1.6528187 14
-0.47582364 -0.54688698 1.4468062 1
-0.40712142 -0.54501718 1.4602971 1
6.4439669 -0.54461467 1.6550735 8
-0.67290235 -0.44762427 1.4847095 1
-0.57199597 -0.38582921 1.4843669 1
-0.53966022 -0.38439089 1.446419 1
-0.56047082 -0.29185957 1.4484017 1
-0.49685717 -0.33447969 1.4742157 1
6.3264189 -0.27970511 1.673216 10.5
-0.58275676 -0.2344411 1.4474827 1
-0.52813458 -0.24402612 1.5222104 1
6.2821064 -0.21183521 1.6786945 17
-0.65433359 -0.065679014 1.4421027 1
-0.61624694 -0.087181568 1.4487839 1
6.2321844 -0.092451394 1.6860255 21.200001
6.2629099 -0.14880216 1.6820735 17
-0.67400336 -0.0054104924 1.440851 1.6363636
6.1971245 -0.015390754 1.690799 21
-0.70914245 0.096768707 1.4378386 1.8181819
-1.0040574 0.23189944 1.4554316 1
-0.75411057 0.18032357 1.4315366 1
-0.72099161 0.16362038 1.4378002 1
-0.94975424 0.31999812 1.4674147 1
-0.92621589 0.32070559 1.4717276 1
5.9334412 0.32788032 1.6273043 1
-0.93913794 0.35110646 1.4700125 1
5.9231658 0.43546909 1.6301997 5
5.8950486 0.47999769 1.6336466 5
5.853817 0.55478394 1.6387124 8
5.8979588 0.54274499 1.6341891 1
3.9400373 2.2956934 1.6958476 9
3.9795065 2.2790141 1.6941732 16.333334
4.5192327 3.5149264 1.72047 3
4.2063379 3.624696 1.7232862 1
4.306798 3.6178982 1.72069 1
4.4132028 3.5788617 1.7198935 1.2222222
4.4866991 3.5514393 1.7192105 3
4.1480541 3.6706526 1.7216759 1
4.2100248 3.6623263 1.7204882 1
2.8343775 -3.9974306 1.6017747 6
2.9040775 -3.9865711 1.6038035 12.857142
2.6074009 -3.8891413 1.6083821 6.4000001
2.6991482 -3.8866599 1.6102567 5.1428571
2.7752523 -3.8815787 1.6119947 6
2.9986737 -3.9402735 1.609436 17.333334
3.0541811 -3.934859 1.6105888 11
3.8049889 -3.571789 1.6470492 15.8
3.8483653 -3.5561471 1.6482897 17
3.9059629 -3.5197546 1.6512568 13
4.0048747 -3.4802382 1.6541424 20.333334
4.0547972 -3.461446 1.6554209 6
4.137042 -3.4045858 1.6596639 14
4.1989498 -3.3851635 1.6607033 11.5
4.2038555 -3.3218081 1.6661383 4
4.2987747 -3.3346 1.6638827 12.428572
4.3948145 -3.2928114 1.66614 10.4
4.4711294 -3.2778497 1.6662753 15
0.6930939 -3.2311924 1.5996153 2
4.3795147 -3.2488976 1.6700857 2
4.5186987 -3.2517176 1.6677018 15.4
4.5971699 -3.2034819 1.6703625 24.857143
4.6685009 -3.1714244 1.6716962 39.333332
4.801569 -3.1776319 1.668586 26.25
4.8584652 -3.1609757 1.6687452 22
4.7141881 -3.1519816 1.6724006 31.333334
4.8445511 -3.1172974 1.6725159 12
4.895155 -3.1310914 1.6703262 26
4.9954252 -3.0893955 1.6713583 15
7.2550373 -3.0698683 1.7468736 10
0.73615813 -3.0391896 1.6197853 1
4.8626509 -3.0521231 1.6773038 5
7.2782831 -3.0327063 1.7481999 11.333333
7.3520336 -3.0285928 1.7469534 2
0.49092567 -2.7399981 1.5482911 4
0.34276462 -2.391912 1.5740974 4.25
0.36310554 -2.4139431 1.573459 2
0.31678593 -2.3147976 1.5800095 6
0.24578297 -2.1594584 1.5898782 3
0.28500414 -2.2162039 1.5875114 5.2857141
0.26161075 -2.1559615 1.5916469 5
0.18956506 -2.0071249 1.5816939 3.75
0.11805475 -1.8949707 1.5324105 7
0.093232155 -1.8158464 1.5386157 10.777778
0.037475109 -1.697027 1.545387 7
0.063576102 -1.743777 1.5432947 9.333333
6.903265 -1.716007 1.8138767 6
0.016233444 -1.6456726 1.5484579 5.3333335
6.8292189 -1.5752017 1.8211144 6
6.8685923 -1.61656 1.8185649 5.5
6.8389311 -1.52054 1.8229386 10
6.8542423 -1.5463738 1.821588 8
6.6118765 -1.1351559 1.7298845 8
6.5897818 -0.98764342 1.7370017 12.333333
6.6093025 -0.95054692 1.7375171 34.5
6.5331488 -0.78377873 1.7476218 27.666666
6.4929562 -0.72282499 1.7518458 20
6.4339046 -0.60224372 1.7590476 2
6.4758091 -0.64561993 1.7554432 3
-0.52655077 -0.35974276 1.5803065 1
-0.46499181 -0.32703638 1.5602227 1
-0.41849518 -0.27986914 1.5395557 1
6.2802334 -0.30533439 1.7763455 3
-0.44606113 -0.23122811 1.5374558 1
-0.40838194 -0.23977637 1.5436445 1
6.1511135 -0.17279553 1.7867713 4
6.2256165 -0.22901505 1.7813592 3.5999999
6.1427584 -0.091530204 1.7893708 5
6.1631403 -0.14554852 1.78689 3.3333333
6.0934515 -0.0068092644 1.7940557 12
6.0499811 0.095448405 1.7987213 14
6.0927019 0.092366904 1.796414 16.333334
6.0276184 0.23675629 1.8028586 22
6.0991917 0.18351346 1.7980369 21.166666
4.9212251 0.31373984 1.7949997 1
4.9738584 0.33193585 1.7913706 1
6.0369325 0.31916565 1.8039131 18
6.0630951 0.26935524 1.8016245 18.5
-0.9503088 0.41326964 1.5408568 8
-0.92832446 0.39771301 1.5440646 7.25
5.000205 0.38747385 1.7903786 1
5.0946484 0.3862707 1.783167 1
5.9972501 0.38894087 1.8071873 15.428572
-0.97144508 0.49198762 1.5386744 10.3
5.0271292 0.49570349 1.7900077 1
5.1119556 0.47161981 1.7832303 1
5.8888412 0.48549882 1.814368 51.142857
-0.98808646 0.55013233 1.5367646 8
5.1365824 0.58196974 1.7827349 17.666666
5.8533907 0.54951453 1.8171179 92
4.3931198 0.68050736 1.7843111 1
5.1153059 0.67866206 1.7852135 3.3333333
5.738328 0.72858346 1.7385362 39
5.7552705 0.71628237 1.737165 31
5.1250029 0.77081001 1.785018 3.75
5.2129564 0.83072293 1.7786138 2
5.5133028 0.78256392 1.7558439 12
5.6259055 0.75671244 1.7472103 4
5.7251382 0.79171979 1.8093274 41
5.7910633 0.79085016 1.8228873 10.666667
4.3760357 0.91486579 1.7850496 1
5.228919 0.87782431 1.7775036 1
5.5959611 0.88163191 1.749995 11.75
5.6550756 0.91138518 1.7456346 31
5.8009911 0.8552202 1.8228399 27.5
4.3974137 0.99145454 1.7820501 1.2727273
4.3186798 1.1335067 1.7869726 1
4.3916168 1.085732 1.7810619 1.3636364
5.3171525 1.1002433 1.7704618 1
4.4065228 1.2000127 1.7772174 1
5.4258108 1.1833851 1.7619421 2
4.4026341 1.2856641 1.7753562 1
5.4368467 1.2903199 1.7602084 2.7142856
5.4597392 1.2725569 1.7587163 3
5.6405306 1.2414432 1.8318768 18
4.4132519 1.3893123 1.7712553 1
4.4732699 1.3744028 1.7663186 1
5.4245787 1.3887875 1.7599607 3.75
4.3958855 1.4882519 1.7693626 1.0833334
4.4937749 1.4466448 1.7621547 1
5.4034863 1.4836414 1.7601067 8
3.689014 1.5891736 1.7758933 3.125
4.338912 1.5745895 1.7709446 1.5714285
4.370676 1.5907848 1.7675104 1.5
5.4172482 1.5850806 1.7574073 12.142858
3.6259265 1.6857061 1.7744725 6.0666666
3.6630182 1.6434879 1.7743751 4
4.3467894 1.6827362 1.7655454 1
4.3595099 1.6972151 1.7638274 1
5.4211149 1.6855862 1.7551607 21.375
3.5805211 1.7785559 1.770864 7.2307692
4.3143687 1.7933588 1.7628942 1
4.3560057 1.7473636 1.7617755 1
5.3832273 1.7846444 1.7555463 39.111111
4.249208 1.919826 1.761337 1
4.2949481 1.8775647 1.7600715 1
5.3354383 1.9001658 1.7558327 34.714287
5.361968 1.8501439 1.7553825 42.5
3.6265435 2.0098 1.7467076 4
4.1941719 1.9963317 1.7610477 1.3333334
4.2733889 1.9634125 1.7569907 1
4.3720388 1.9506879 1.7500551 1
5.2992744 1.9938717 1.7555487 24.777779
3.6305499 2.0810061 1.7397819 9
3.716301 2.1165869 1.7298554 6.5
3.8091607 2.0573349 1.7277172 17
3.8661461 2.080369 1.720983 9
4.1265635 2.0983248 1.7596376 1.6
4.1629801 2.0568395 1.7596714 3
5.2398558 2.1110799 1.7557085 24
5.2636185 2.0671542 1.7556157 18.25
3.7331357 2.1631536 1.7242284 9.666667
3.9149508 2.2288997 1.7038877 13.333333
4.0270338 2.2133942 1.7587368 2
4.0974774 2.1808171 1.7561927 2.3333333
5.208972 2.1869669 1.7550478 32.111111
3.9100466 2.2598145 1.732096 6.5
4.077261 2.3026624 1.7490823 9
4.1960025 2.2986827 1.7582707 5.5
5.1403985 2.3215728 1.754275 35.666668
5.1723757 2.2745268 1.7541286 36.333332
3.423666 2.394278 1.7782265 9.5
3.4872961 2.4017611 1.7746642 4.6666665
3.6496072 2.3910339 1.7675476 6
3.6642568 2.385113 1.7672613 6.1428571
4.0208411 2.3615141 1.7484256 10
4.0557165 2.3417799 1.7476741 11
4.234427 2.3582716 1.8030674 11
4.3229113 2.3951492 1.7543972 12.6
4.4026637 2.4350693 1.7905225 33
5.1138763 2.3948276 1.752916 31
3.4105153 2.4893985 1.7701948 15.6
3.5530376 2.4513977 1.7672079 2
3.6084213 2.4668071 1.7631794 2
3.6693859 2.472261 1.7596701 2
4.4027147 2.4441996 1.7900374 37
4.8216338 2.4989932 1.765084 69.166664
4.8911791 2.4902382 1.7616345 30
5.0543966 2.5220456 1.7509683 22
5.0764971 2.4831693 1.7513933 26.166666
3.4602513 2.6129353 1.7567909 1
3.9345765 2.6121669 1.8015573 65.666664
4.8112946 2.5903983 1.7612497 68.285713
5.024601 2.5782804 1.7931501 60.166668
5.0601983 2.5416453 1.7497661 22
3.2431746 2.7016902 1.7561145 1.3333334
3.2996178 2.7026446 1.7542137 1.125
3.468154 2.6409986 1.7538776 1
4.7894192 2.6849682 1.75767 52.400002
4.9804459 2.6791289 1.8341157 100
3.3911154 2.7808657 1.7435832 1
4.9232979 2.7710197 1.8043294 73.833336
4.9594846 2.7457416 1.8325586 100
3.7437859 3.4320655 1.7496554 4.5
3.7079811 3.4911044 1.745919 7.375
3.671227 3.5508406 1.7420613 2.5
4.0504093 3.5670156 1.8188405 5
4.0701132 3.5747559 1.7743213 5
4.540307 3.631012 1.8067033 100
4.5234222 3.690151 1.8041414 99.833336
4.5637798 3.6380019 1.8058648 55
4.224081 3.7877386 1.8044989 17
4.4846416 3.7812593 1.8003519 99.833336
4.4316974 3.8938072 1.7955594 99.85714
4.4653559 3.8411353 1.7976773 100
4.3938265 3.9809136 1.7916532 97
1.1281372 5.568594 1.7643489 2
1.1267662 5.6819835 1.759544 2
1.0467844 5.807538 1.7511317 8
1.0683815 5.7952895 1.7525005 12
2.2956975 -4.3035474 1.6726825 1
2.3564367 -4.2937536 1.6749699 1
7.8216677 -4.2854953 1.849659 8
7.8688507 -4.2734723 1.8502021 7
7.9036598 -4.2343764 1.8517234 6
8.0027657 -4.1963434 1.8532914 6.75
8.1031513 -4.1560111 1.8549087 10.333333
8.1965818 -4.1113191 1.8566358 11.5
8.2795401 -4.0742378 1.8580461 11.5
8.5653181 -4.0913167 1.8575957 36
8.685627 -4.1070256 1.8570757 32.666668
8.7747326 -4.0843654 1.857883 23.5
2.8345187 -3.9836624 1.7083011 7
8.3251066 -4.0399671 1.8593047 10
8.3917828 -4.020205 1.8600445 19
2.3450074 -3.8906744 1.7043647 1
2.4001832 -3.8709986 1.7071724 2
2.6234069 -3.8658631 1.7126577 13
2.7068391 -3.8651211 1.7144519 14
2.7845459 -3.8687918 1.7157209 10
3.0030792 -3.9076622 1.7168126 8.5
2.3727858 -3.8567083 1.7075574 1
2.5766993 -3.8587554 1.7121673 8.5
2.6961856 -3.8545301 1.7150042 11.2
2.7967474 -3.8532012 1.7170839 10
2.9016311 -3.8364065 1.7202361 10.857142
2.9618292 -3.8267486 1.7219836 10
3.8390913 -3.5289779 1.7526375 8.5
3.9035735 -3.5067589 1.7544541 69.85714
3.9882231 -3.4734888 1.7570337 59
5.3917847 -3.3660078 1.7588207 2
4.1988764 -3.3072085 1.7684873 3.75
4.3002033 -3.3005102 1.7688862 10.25
4.3626814 -3.3012271 1.7687598 19
5.3127489 -3.3024518 1.7633245 1
5.4080319 -3.3114865 1.7618796 2
4.3924456 -3.2340994 1.7730497 6.4000001
4.5013061 -3.2343705 1.7727261 22.142857
4.6017437 -3.1911967 1.7750793 23.714285
5.2557964 -3.2619672 1.7662517 1
4.6742258 -3.1472616 1.7774885 21
4.8049445 -3.1513453 1.7764626 19.799999
4.8851986 -3.1191783 1.7778817 23.5
4.9797559 -3.0777338 1.7796676 24
4.8450785 -3.037632 1.7831535 4
4.867342 -3.0273557 1.7836096 3
5.031539 -3.0526025 1.7807353 15
7.2784519 -3.026783 1.8947322 1.5
0.71235263 -2.9403529 1.6274579 1
7.2981329 -2.9485188 1.8974316 27.333334
0.5482955 -2.7697415 1.6328173 3
0.56762552 -2.8172047 1.6297803 4.1999998
0.68398058 -2.8384902 1.7183354 4.5
5.8746624 -2.7759807 1.7859088 6
0.51866269 -2.7239141 1.6349978 4
0.61919725 -2.7174025 1.7232881 4.6666665
0.55988979 -2.6560707 1.7242968 3
0.34999561 -2.3637006 1.6549811 6
0.38072371 -2.3902037 1.6548944 4
0.33418429 -2.303791 1.6589357 5.1428571
0.36797893 -2.3559961 1.6569247 8
0.29168034 -2.2028198 1.66431 9
0.24230886 -2.1121962 1.6681104 6
0.26790202 -2.1301389 1.6685766 9
2.8183694 -1.9238584 1.7985033 9.2857141
2.8974659 -1.9270439 1.7984111 9.6999998
2.9908497 -1.9391696 1.7973214 12.222222
4.7224083 -1.8672957 1.8518815 1
4.8154435 -1.9122226 1.8480718 1
5.6404467 -1.788244 1.8392701 1
5.5026093 -1.7373238 1.844431 1
5.6050701 -1.7313375 1.842612 1
5.6707907 -1.7385464 1.8409185 1
6.7007771 -1.6935155 1.8196301 4
6.6481133 -1.6500602 1.8226115 6
6.7849188 -1.478291 1.8258621 14
4.8464255 -1.375948 1.7965699 13
4.8554459 -1.3950064 1.7950724 19
6.7196293 -1.4059699 1.8301731 21.75
6.6926155 -1.3030934 1.8345938 55.833332
3.8934269 -1.1889539 1.8431245 1
3.9497867 -1.1701899 1.8425761 1
6.6059399 -1.1724443 1.8414435 52
6.7385511 -1.2468476 1.8354192 34.5
3.9284225 -1.1521485 1.8445137 1
3.9946134 -1.1333055 1.8435316 1.625
4.0613527 -1.1146872 1.8424399 1
4.2259684 -1.0896168 1.8380017 1
4.419013 -1.0993195 1.8299448 1
6.5864344 -1.1126897 1.8440105 29.25
6.6679544 -1.1401408 1.8409507 20
4.3117657 -1.0522225 1.8370004 1
4.4182739 -1.0165412 1.8348531 1.2857143
4.4713926 -0.99993652 1.8336515 1
6.5327587 -1.0254304 1.8483756 41.666668
6.5701008 -0.98534745 1.8487214 45.666668
4.6895485 -0.88398951 1.830706 1
6.5924225 -0.914527 1.8504243 12.333333
4.6814604 -0.80680639 1.8350004 51.5
6.5201206 -0.79443699 1.8561516 8.666667
6.5609713 -0.82068604 1.8542371 9
3.7251997 -0.72734338 1.8315856 1.2
3.7972369 -0.68624145 1.8304176 2.1818182
4.7182436 -0.72929388 1.8371607 56.57143
4.761549 -0.70377904 1.8363934 12
4.9025755 -0.70457202 1.8298035 18.444445
6.428339 -0.67821831 1.8621844 12
6.5048704 -0.71746296 1.8589141 7.75
3.8413153 -0.66197282 1.8295243 1
3.885627 -0.65460283 1.8273391 1
4.0210538 -0.56965488 1.8244556 1
4.8352776 -0.5894857 1.8381282 30.666666
4.8901038 -0.63763577 1.8334144 16.5
5.1698747 -0.59078199 1.8220253 1.8
6.4372711 -0.5823893 1.8647379 7.3333335
6.4721336 -0.64019674 1.8621039 7.3333335
4.0244889 -0.55406904 1.8252144 1
4.0817709 -0.53904128 1.8224034 1
4.7259154 -0.52321166 1.8462054 24.5
4.7657595 -0.52144182 1.8443779 1
5.337534 -0.51648301 1.816775 1
5.3865528 -0.54113358 1.8134221 1
6.4150858 -0.51332575 1.8673009 8.3999996
4.2034101 -0.41897792 1.8211657 2.1666667
5.5822678 -0.36806762 1.8098928 1
6.3880568 -0.45201147 1.8697431 10
5.5955591 -0.32635558 1.8105972 1.3333334
6.3116856 -0.29893875 1.87591 84.5
4.244175 -0.20518637 1.8289274 11
4.2919068 -0.20017582 1.8257143 15.428572
4.3544235 -0.18522608 1.821874 36.5
6.2699823 -0.21632415 1.8791453 80
4.278347 -0.12791282 1.829795 19.200001
4.3775854 -0.12286824 1.8227773 6
6.2291822 -0.11073035 1.8828099 83.833336
6.2520952 -0.13136488 1.8816829 84
4.0175848 0.0041746795 1.8066405 7
4.0980682 0.012380749 1.8352747 19.181818
6.188283 -0.012920111 1.8861769 83.333336
4.048357 0.092035085 1.8072305 1
4.0972738 0.058432907 1.8237588 10
4.2134852 0.062269211 1.8416829 1
4.7589846 0.13135126 1.802951 1
6.0833311 0.11145851 1.8918176 19
6.1660509 0.054884523 1.8882654 93.666664
4.7287755 0.14841795 1.805684 1
4.811955 0.19826595 1.8006853 1.875
6.019999 0.22756919 1.8959017 18
6.106287 0.17361107 1.8923733 81
4.8208628 0.26032346 1.8014681 2.4000001
4.8543339 0.29255348 1.7996328 1
5.9994411 0.29039326 1.8976294 19
5.9296675 0.35301429 1.9007422 17
5.9755554 0.40098307 1.9001858 39
4.2964358 0.49817252 1.7925768 1.25
5.870882 0.48795968 1.9045705 65.666664
5.960577 0.44145119 1.9012599 100
4.3277426 0.58650082 1.7980399 4.9285712
4.369278 0.57938659 1.8408043 1
4.1110458 0.73422599 1.836931 6
4.3253603 0.69529259 1.7910006 7.75
4.3626757 0.68807214 1.7873325 1
4.0801592 0.79277611 1.8377488 24.68421
4.2394266 0.74962926 1.7994332 11
4.2991905 0.74618304 1.7935807 28.5
5.7190075 0.79254448 1.9127265 64.5
5.7500916 0.82820332 1.9121726 30
4.1826334 0.8482095 1.8044146 1
5.7006068 0.87459636 1.9140117 81
5.7962599 0.85958493 1.9111278 76
5.6692033 1.1291196 1.9165642 84
5.5889654 1.1947651 1.8934847 17
5.6793842 1.1501278 1.9163697 88
5.5276723 1.3111095 1.9210236 28.75
5.6023836 1.2833695 1.8663807 41.53846
5.5297561 1.3931377 1.9021966 60.444443
5.5675411 1.3815105 1.8349667 76.14286
5.5162506 1.4864471 1.8815336 96.470589
5.4513721 1.6218195 1.8386062 100
5.4740973 1.582871 1.8800592 98
5.4247704 1.6880565 1.8786013 97.764709
5.4620528 1.6371207 1.9223483 94
5.3845797 1.7861958 1.8840418 98.058823
5.3338881 1.896533 1.8760536 98.071426
5.3564329 1.8488741 1.9028686 96
5.292202 1.9854419 1.8798168 98
0.80356765 2.0822148 1.7878462 2.6363637
5.2385111 2.1046624 1.8775048 97.777779
5.263051 2.0577724 1.8926309 96.5
0.32008183 2.21051 1.790457 1.6666666
5.2062216 2.1836276 1.8818113 96.944443
0.32404983 2.2889354 1.7873693 2.2222223
3.6488378 2.3219223 1.8506056 52
3.665205 2.2952073 1.890097 39
4.1001158 2.3108318 1.81224 73.5
4.155427 2.3151069 1.8093104 14
5.1461935 2.3087356 1.8897233 95
5.1670265 2.2678051 1.8776382 97.090912
0.34361446 2.3608727 1.7857829 2
0.36634791 2.3990228 1.7859042 2
2.7268324 2.3475628 1.8040633 4
3.6122622 2.3564086 1.8690541 25.166666
3.6972528 2.3994446 1.8244998 30.5
4.0459328 2.4198411 1.8085847 87
4.072876 2.3712788 1.8101412 86.571426
4.3333187 2.4305162 1.8651879 93.666664
4.3952236 2.4206898 1.8635235 42.166668
5.1166401 2.3799851 1.8806559 95.277779
0.35447681 2.4741066 1.7814159 1
4.016367 2.4666252 1.8071337 82.714287
4.0710268 2.5298884 1.8690367 75
4.2298574 2.5346282 1.8642794 92
4.2979574 2.4909422 1.8639543 77.599998
5.0466614 2.5231063 1.8793726 93
5.0734072 2.4720922 1.8798211 95.285713
0.37684953 2.5893571 1.7776585 1
4.0781937 2.5589433 1.8675768 94.5
4.1950665 2.5651333 1.864025 56
4.2629061 2.5376422 1.8631691 88
4.9112406 2.5877776 1.9232421 69
5.0209904 2.5866683 1.8884163 91.92308
5.0505896 2.549046 1.9214548 84
0.32364833 2.6741705 1.7692828 1
4.9287887 2.6487038 1.8370068 71
4.9710255 2.6967402 1.9200451 87
4.9309344 2.7712367 1.904904 81.666664
3.7191 3.4255841 1.8308055 8.8000002
3.6416562 3.5213506 1.8666118 2
3.6829076 3.4860368 1.8645146 7.7272725
3.6391792 3.5420148 1.8249913 3
3.6689758 3.5485373 1.9062492 2
4.041997 3.5552723 1.9059572 4
4.0702066 3.5751703 1.9052219 6
4.5692101 3.6002021 1.9019479 85.199997
3.6082845 3.6617491 1.9019296 1
4.1285357 3.6421986 1.9028312 9
4.5259151 3.6938782 1.8993833 84.5
4.5569468 3.6532242 1.9004325 84
4.4802008 3.7884314 1.8966845 84.428574
4.4359198 3.888062 1.8936985 83.333336
4.3978806 3.9751508 1.890987 82.199997
3.8886721 -3.5039306 1.856113 31.75
3.9207048 -3.404135 1.8612494 14.333333
3.9071693 -3.3209939 1.8649567 10.5
4.205061 -3.3224208 1.8686384 7.8333335
4.2732191 -3.279882 1.8713559 7
3.9012873 -3.2435462 1.8684958 7
4.2102737 -3.2621644 1.8714544 5
4.3118887 -3.22858 1.8740996 6
5.3248925 -3.2075508 1.8831376 4.25
4.3309851 -3.1471243 1.8779697 17.333334
4.405036 -3.1250594 1.8796959 10.857142
4.4901528 -3.1061783 1.8813441 13.75
4.595736 -3.137495 1.8809133 13.2
4.6872849 -3.1197488 1.8824652 22.333334
4.8024464 -3.1304832 1.8829176 17.6
4.8564987 -3.1233704 1.8836334 16
5.1520166 -3.0891111 1.8870521 4
5.2942123 -3.0861328 1.8879799 1
4.8249598 -3.0078247 1.8883426 19.200001
4.892396 -2.9923334 1.8894691 10.333333
5.0038481 -3.0277638 1.8887039 10
5.0527034 -3.0126519 1.8896437 2
5.3061676 -3.0449831 1.8897306 1
5.399744 -3.0041444 1.8918513 1
5.4609551 -2.9703522 1.8934921 1
5.4444065 -2.9302912 1.8950269 1
5.4863596 -2.9023004 1.8963141 1
5.5867128 -2.8817129 1.897507 1
5.6764336 -2.8719511 1.8981959 1
5.758214 -2.8888161 1.8977962 1
5.863205 -2.8786519 1.8984878 1
3.6106524 -2.8362405 1.8835946 32
5.6236048 -2.8467526 1.8990062 1
5.701642 -2.8380082 1.8995917 1
5.8026295 -2.8100781 1.9009535 8.333333
5.9179411 -2.8083539 1.9013023 1
0.60940063 -2.6618814 1.7265757 4
3.6666994 -2.7552063 1.8881494 5
5.8073969 -2.7595429 1.9028964 1
0.56983542 -2.5811152 1.7299317 1.6666666
0.39575016 -2.4065769 1.73176 3.5
2.5026243 -2.3953905 1.8847286 42.75
6.6384945 -2.4002678 1.9164454 1.5
6.6371403 -2.3449857 1.9183072 8.5
6.6515493 -2.3053956 1.9196162 12
3.236294 -2.2046452 1.9080008 5
6.7105827 -2.2575581 1.9211379 11.666667
6.7691708 -2.2384052 1.9216917 9
0.21709597 -2.0611761 1.7430749 4
3.1784599 -2.128803 1.8452842 8
3.3220444 -2.0704362 1.8498507 5
0.23919952 -2.0473771 1.7811317 4
0.25936973 -2.05426 1.8179054 12
2.1380236 -2.0100071 1.8375773 4
2.2813354 -1.9965966 1.8421787 7
2.8868794 -1.9697831 1.8541266 19.5
3.0231817 -1.9703171 1.8552452 17.666666
3.0884042 -1.9706211 1.8556607 10
3.3315029 -2.043896 1.8516599 7.6666665
3.3730726 -2.0283542 1.8527772 7.1666665
2.2444353 -1.9598029 1.8440022 3
2.2629485 -1.8921208 1.8494245 3
2.7185168 -1.9008265 1.8457627 18.6
2.786304 -1.9165242 1.8392484 12.615385
2.9028046 -1.9511321 1.8555881 14.333333
2.980422 -1.9268632 1.8579545 8.7142859
3.0626223 -1.9555793 1.8565404 28
3.3505225 -1.9175391 1.8601359 1
4.2385263 -1.9371765 1.8542041 1
4.2761145 -1.8863583 1.8567318 1
4.416399 -1.8756804 1.8556647 1
4.4832215 -1.8755527 1.8548146 1
4.5600214 -1.898869 1.8524961 1
0.14967847 -1.8536503 1.8210299 1
3.7126727 -1.86239 1.8628937 1
3.7565629 -1.8532736 1.8632231 1.3333334
4.1198349 -1.8562052 1.8601522 1
4.2909231 -1.8501391 1.8586402 2
4.3787422 -1.8427401 1.8579886 1
4.474925 -1.843611 1.8566958 1
6.7892704 -1.7796276 1.9360864 15.333333
0.097575307 -1.7062376 1.8244886 34
2.1341398 -1.7127237 1.8593911 1
2.2812996 -1.6884289 1.8648152 1
2.6753016 -1.741802 1.8148124 3
6.8197765 -1.7534597 1.9367944 16
6.9053545 -1.7127721 1.937766 62.333332
6.9537468 -1.6937435 1.9381847 100
0.067564964 -1.6556518 1.8249849 26
2.1076367 -1.5938737 1.8674377 1
2.1645534 -1.5914273 1.8691282 1
2.2648947 -1.6072068 1.8704021 1
6.6398153 -1.6322916 1.9409119 40
6.6671629 -1.6640177 1.9398892 41
6.9181995 -1.628139 1.9402081 59.75
1.4021949 -1.463908 1.8503554 1
6.8390083 -1.4859126 1.9445566 65
6.8703699 -1.5380275 1.9429632 60.666668
4.8608093 -1.3816533 1.8739287 5.5
6.7071695 -1.3970406 1.9475243 39.333332
3.5310245 -1.2686815 1.8476177 1.6666666
3.5793235 -1.2680817 1.8464572 1
3.6926384 -1.27688 1.8427958 1
6.6836681 -1.3047318 1.9501876 46.666668
3.5130565 -1.2578425 1.8488914 2
3.6149707 -1.2537 1.8466237 1
3.7157369 -1.2413931 1.8447742 1
3.7959561 -1.2210147 1.8438867 1
3.8713632 -1.1933804 1.8435225 1
6.7244043 -1.237391 1.9518864 69.333336
3.9020972 -1.1584473 1.8449544 1
6.5434656 -1.067301 1.9571732 36
6.6171303 -1.1363878 1.9550332 33
4.9241238 -0.98742896 1.9048722 3
5.0855532 -0.9677729 1.8870198 1
6.5245352 -0.99210078 1.9592279 44
6.5705309 -1.0162411 1.9583983 24.5
4.9153919 -0.95807463 1.9508115 6.1999998
4.9635139 -0.95490545 1.8904231 1
6.5843534 -0.93368834 1.9604759 63
6.4716654 -0.81597954 1.9639503 18.5
6.4084024 -0.68487841 1.9674664 16.5
6.499898 -0.74862248 1.9654843 39.333332
6.4202805 -0.62556869 1.9688201 36.333332
6.4541101 -0.6145944 1.9689186 74.25
6.4160852 -0.51736087 1.9713653 69.800003
-0.32005858 -0.39537376 1.7874817 9.666667
6.3845587 -0.45507842 1.9729409 68.5
-0.30618501 -0.29186201 1.7921511 8.3999996
6.311985 -0.29477203 1.9768353 74.333336
-0.31157565 -0.1900987 1.7949213 6.75
6.2803516 -0.22131658 1.9785523 73.666664
-0.29662037 -0.087749958 1.7992047 8.25
-0.22110415 -0.091852963 1.8055753 5.1999998
-0.089712858 -0.10349745 1.8165178 4
-0.0081775188 -0.06823945 1.8245494 4
6.2301111 -0.1015479 1.9812682 81
6.2585039 -0.15775537 1.9799818 73.5
-0.29566216 -0.0069514811 1.8014836 10.75
-0.22057414 0.019548059 1.8086836 9
-0.10807323 0.024973601 1.8185501 5
4.1386204 0.022699952 1.9156089 18
4.1519213 0.02805832 1.9202549 38
6.1878109 -0.016132116 1.9831767 82.5
-0.28847575 0.061601609 1.8038707 11
-0.20307684 0.09551686 1.8121099 10
-0.11277914 0.13192049 1.8208209 10.5
0.0050024986 0.090507507 1.8300011 8
4.1423941 0.042549223 1.8961989 2
4.152668 0.042053401 1.9456822 6.5
6.0722923 0.10208386 1.9860588 26.4
6.158658 0.045517802 1.9845158 80.5
-0.0042543411 0.16417104 1.8310055 10.666667
6.0329151 0.23125204 1.9885858 31
6.0862589 0.17894766 1.9873602 55
6.0169306 0.28700233 1.9896226 47.166668
6.0493507 0.28570157 1.9894149 36
5.9418411 0.38496229 1.9916666 23
5.977386 0.38418832 1.9914414 51
4.3360491 0.52176005 1.9097033 12.5
4.3727069 0.51401997 1.9376682 2.8
5.8749313 0.49866799 1.9938071 28.833334
5.9881744 0.43870294 1.9922355 95
0.034252405 0.60770947 1.8418696 2.2857144
4.323781 0.58248091 1.9267045 24.227272
4.357151 0.53552336 1.9493493 21
4.4668913 0.6346904 1.8906692 1
5.8462234 0.55799532 1.9948438 46
5.8541956 0.55826747 1.9948002 46
-0.054834127 0.72081411 1.8351449 3
-0.021565676 0.68472165 1.8377353 2.5833333
-0.066963911 0.79444236 1.8345797 3.2
-0.04574132 0.77152503 1.8362694 3
4.0809975 0.80665088 1.9597695 7.5
5.7187462 0.79025781 1.9986507 64.5
-0.81297231 0.90942407 1.8384029 2.1666667
-0.094722748 0.89103925 1.83262 3
5.7041368 0.87249982 1.9996941 62
5.7931156 0.87008899 1.9991679 84
-0.80164647 0.9738912 1.8397255 2.8571429
-0.11649179 0.99084133 1.8309691 3.25
-0.15820765 1.1023006 1.8273952 2.2857144
-0.13657951 1.0622331 1.8292773 2.3333333
-0.16529775 1.1828082 1.82661 2.1818182
5.6110659 1.1930816 2.003324 43.200001
5.6608033 1.1511066 2.0027142 85.666664
-0.18807268 1.2865407 1.8242606 2
5.6105299 1.2832789 2.0040245 91
-0.21577573 1.3880385 1.8213294 1.7777778
0.28101838 1.3871346 1.8149505 2.25
5.5465198 1.4052167 2.0051579 93.5
5.560781 1.3739387 2.0048914 75.833336
-0.23030019 1.4885371 1.8193201 1
0.27176237 1.4940436 1.811371 2.0769231
5.5174599 1.4812918 2.0057216 93.555557
-0.25657988 1.5889008 1.8162 1
-0.23697829 1.5874217 1.8178012 1.2
0.27885151 1.592083 1.8093517 2
5.4446464 1.6298988 2.0067163 100
5.4755707 1.5801148 2.0063829 96.125
-1.184788 1.7166865 1.8198986 1
-0.27361345 1.6941798 1.8136125 1.5
-0.24298167 1.6432064 1.8166964 2
0.27912211 1.6816177 1.806662 2
5.4273968 1.6900554 2.0069945 96.85714
5.4482098 1.6438365 2.0067556 95
-1.2004023 1.7951622 1.8191147 1.125
-0.28983045 1.795089 1.8109972 1
0.24632657 1.7913773 1.7999696 2
0.26903522 1.7902451 1.8021359 1.9090909
5.3859844 1.7814207 2.0073988 97.888885
-1.2231431 1.8922246 1.8178823 1
-0.29375362 1.8856614 1.8093748 1
0.27755153 1.8881385 1.799494 1.8888888
5.3350329 1.8959086 2.0077701 99.14286
5.3592052 1.8447659 2.0076225 98.5
-1.2675221 2.0091519 1.8152841 1
-1.2405756 1.9654088 1.8168927 1
-0.31679726 1.9926169 1.8058691 1
0.28853905 1.9877138 1.7967649 1.75
0.50149763 2.0159397 1.840297 19.25
5.296174 1.9885082 2.0079496 97.444443
-1.307075 2.0924616 1.8129077 1
-0.31493235 2.0931733 1.8042762 1
0.30315673 2.0861459 1.7941844 2
0.43932986 2.0615764 1.8071411 1
0.74331117 2.1176636 1.8796178 3.6666667
0.76420319 2.1072326 1.881289 2.8
5.2398577 2.107465 2.0080557 98.75
5.2618465 2.0625253 2.0080354 97.75
-1.3525949 2.1667838 1.8101496 1
-1.3343236 2.1878152 1.8112376 1
-0.32112384 2.1917348 1.8019696 1
0.30871177 2.1505191 1.7920225 2
3.6302772 2.2357936 1.9496069 19
5.2065439 2.1822033 2.0080271 96.222221
-1.3705537 2.2746339 1.8089886 1
-0.30061769 2.3073928 1.8244455 36.555557
-0.22995067 2.3313978 1.8751117 50
2.8750584 2.2692509 1.9506489 9
3.6180031 2.2947297 1.9195614 54
3.7444878 2.2481589 1.9481112 69
3.7553215 2.2406902 1.9481941 49
5.1423922 2.3196752 2.0078211 91.333336
5.1692362 2.2694433 2.0079181 94.166664
-1.397085 2.382468 1.8072526 1
-0.19415474 2.3570092 1.8337784 62.0625
-0.096150875 2.3955016 1.8497633 59.714287
-0.023972034 2.4275804 1.8521914 58.625
0.16619623 2.3892894 1.8330004 16
3.6686239 2.4001327 1.9445314 1.6666666
4.1247263 2.4199717 1.939117 27
4.3819165 2.409128 1.9356942 68.166664
5.112504 2.3909738 2.0076194 92.333336
-1.4199333 2.4841628 1.8056917 2
0.020191193 2.4483833 1.8212374 67.75
0.11875844 2.4951739 1.826875 69.285713
0.18199158 2.5197747 1.8305287 66.833336
4.1013927 2.4816864 1.9378479 63.18182
4.172277 2.4512031 1.9377221 12
4.3616343 2.4765148 1.9344779 63.333332
4.5075312 2.4640985 1.9325308 43
5.0694766 2.4910679 2.0072501 93.5
-1.4521921 2.6274083 1.8034049 1.5
-1.4318411 2.5796783 1.8047395 1.8
-1.2249246 2.6222751 1.8166995 1
0.1828202 2.5849106 1.8287467 14.333333
4.0735846 2.5393994 1.9366833 19
4.2926846 2.5890994 1.9960734 8.375
4.4041209 2.6046941 1.9557545 21.555555
4.4883919 2.6169579 2.0056412 3.25
4.8606133 2.5804102 2.0066674 48
5.026638 2.5854123 2.0067992 95.375
0.13477468 2.6883721 1.8225496 10
4.2363138 2.7159293 2.0037949 49.5
4.2634044 2.675874 2.0043008 29.166666
4.5201616 2.6460536 2.0055115 2
4.614028 2.6665511 2.0056205 12.5
4.7186379 2.71719 2.0055177 10.666667
4.7782378 2.7345212 2.0055373 7
4.9798012 2.6885004 2.0061929 99.375
0.086663604 2.7948425 1.8162419 13.333333
4.2344847 2.7540357 2.0034108 36
4.8138752 2.7480421 2.0055239 10
4.9120255 2.785167 2.0054786 70.333336
4.9522047 2.7631276 2.0056999 100
0.02783227 2.9080474 1.8090093 11
-1.5681331 3.0388086 1.7950068 1
-0.01116395 2.9920967 1.8039387 8
-1.5642529 3.0832436 1.7950025 1
-0.059012651 3.1160545 1.7970748 6
-0.036311388 3.0601914 1.8002458 11
-1.6239769 3.1967201 1.7909813 1
-1.6849194 3.3135414 1.7868483 1
-1.6412008 3.2490602 1.7897062 1
1.5506495 3.3107991 1.9435463 1
-1.693496 3.3514395 1.7861369 1
1.5020061 3.4070556 1.9400117 1.3333334
3.7249703 3.4196284 1.9565184 3.4285715
3.6857624 3.4769287 1.9715521 3.6666667
4.6126142 3.4974413 1.9976878 87.800003
4.0395107 3.5515723 1.9922311 5
4.0519934 3.5483062 1.9924035 7
4.5758924 3.5857854 1.9964132 82.571426
3.5866032 3.6884596 1.9846847 1
4.1663837 3.700587 1.991442 13
4.5263929 3.6826634 1.9948753 80.571426
4.4815078 3.7779996 1.9933145 83.166664
3.5129995 3.8526011 1.9809147 1
4.4330235 3.8964474 1.9913424 74.800003
4.4574661 3.8437874 1.9922588 81.5
4.4022694 3.9684584 1.9900842 71
7.742548 -4.3789101 2.0196688 1
7.8103571 -4.286428 2.0231473 44.5
7.8840551 -4.2454276 2.0255539 76.5
7.9961195 -4.2003736 2.0288053 81.5
8.0677166 -4.1723552 2.0308571 82
8.1108932 -4.1385965 2.032469 80
8.197072 -4.1044517 2.0349324 72.333336
8.2496595 -4.078969 2.0365345 76
8.7007885 -4.0933838 2.0450194 48
8.3064604 -4.052629 2.0382338 80
8.3953791 -4.0159373 2.0407846 79.666664
8.5151463 -4.0329413 2.0427427 43
8.7844896 -4.0489764 2.0476158 50
8.8752594 -4.0239387 2.0499163 50
3.0211067 -3.8852909 1.9254476 17
2.4944303 -3.8098805 1.9131844 18
2.6052034 -3.7975729 1.9165814 50.5
2.6455326 -3.8127949 1.9172789 66
2.9954035 -3.8339369 1.9261421 7.6666665
3.0929408 -3.8320529 1.9287664 15
2.4537284 -3.6988151 1.9150522 3
2.6716509 -3.7423236 1.9198937 6.5
3.7370977 -3.5447741 1.952719 39.5
3.7981343 -3.5335231 1.9545022 84.666664
3.8842788 -3.4880395 1.9577725 91.285713
3.9436538 -3.4728148 1.9595954 96
4.0006857 -3.4346559 1.9619426 81.625
2.1831272 -3.2736998 1.9189113 1
4.140048 -3.3598011 1.9671597 45
4.1994076 -3.342114 1.968997 91.14286
4.2952132 -3.2965467 1.9723761 88.571426
4.3588963 -3.2706745 1.9744952 100
5.3438125 -3.2755382 1.9960825 1
0.79860377 -3.2081845 1.8780862 12
2.0914371 -3.1968162 1.9183561 1
2.1711471 -3.2387633 1.9195142 1
4.389883 -3.2107618 1.9767158 38.333332
4.4938498 -3.2124665 1.9790267 100
4.566164 -3.1834333 1.9813797 98
5.2163177 -3.1826651 1.9956069 1
5.3073196 -3.2343497 1.996299 1
5.3880534 -3.208524 1.9986347 2
0.76857185 -3.1135066 1.8796015 16.333334
2.112361 -3.1543446 1.9201118 1
4.3722887 -3.1650474 1.9774696 15
4.6125236 -3.1558073 1.9831041 98.5
4.6922112 -3.1208415 1.9857392 95.14286
4.8104649 -3.1225784 1.9882976 100
4.8710847 -3.1103055 1.9899237 100
5.4291444 -3.0905578 2.0023246 1
5.5305023 -3.1044605 2.0041142 1
5.5526686 -3.1434939 2.0036507 1
0.77854812 -3.0107989 1.8826411 12
4.8767543 -3.0212624 1.9922277 45.333332
4.993495 -3.047219 1.9941149 97.800003
5.0501537 -3.0277002 1.9958054 57.5
5.427527 -3.0643487 2.0029151 1
5.5266533 -3.0312493 2.005769 5.5
5.5892839 -3.0045104 2.0076981 2.5999999
5.6624265 -2.9918623 2.009505 1
7.3568401 -2.9799919 2.0433855 33
0.77165556 -2.9206834 1.884787 16.200001
5.7035685 -2.9508929 2.0113091 1
0.75371313 -2.8462708 1.8861482 5
5.8822746 -2.7626166 2.019289 56
0.60930479 -2.621448 1.887164 16.285715
0.6485076 -2.6487617 1.8877842 30
0.58412755 -2.5402496 1.8884128 5.6666665
6.6997833 -2.5013292 2.041141 11
0.6250062 -2.4073598 1.8932505 1
1.0590161 -2.4296782 1.9072319 1
2.4197295 -2.3751824 1.8837508 27.666666
2.493216 -2.381521 1.8851932 42.799999
6.7058649 -2.4143591 2.043134 3.4000001
0.46874642 -2.2821743 1.8910648 1
2.3789034 -2.3270142 1.8851596 4
2.5313725 -2.3592279 1.8872042 31
2.553165 -2.3140657 1.8899543 15.666667
6.7011566 -2.3134844 2.0452065 12.75
0.43525207 -2.1806428 1.8924747 3
0.46449006 -2.2146735 1.8926353 3.1666667
2.068722 -2.1808541 1.8842055 17
3.2035775 -2.1678267 1.9092604 8
6.7143669 -2.255161 2.0467002 17.5
6.7727585 -2.2348254 2.0482364 16
0.33426332 -2.0915947 1.8911498 5
0.38899887 -2.1239276 1.892276 4.6363635
2.0376177 -2.1050062 1.8871272 2.5
2.0626678 -2.1342626 1.8863785 10
3.3707495 -2.0834 1.9534661 13.428572
0.33586407 -2.0387659 1.8925301 4.25
0.35369587 -1.9909809 1.894362 1
2.114922 -2.0428734 1.89247 51
2.2004869 -2.0180199 1.9208162 52
2.2667546 -1.9993122 1.9275422 47.400002
2.670908 -1.9694974 1.9675008 12
2.9080493 -1.96738 1.9736282 61
3.0001855 -1.9684181 1.9758956 53.333332
3.0753345 -1.9736857 1.9469879 16
3.389137 -2.0547507 1.9253505 19.875
0.30814755 -1.8988173 1.8950211 5.1428571
0.36622953 -1.9191065 1.8966039 5
2.3087277 -1.9282987 1.9240111 19.75
2.6420591 -1.950243 1.9099323 12
2.6985369 -1.9221821 1.9359056 56.31818
2.7926683 -1.9289231 1.9444071 58.105263
2.8921046 -1.9438891 1.9402853 61.761906
2.9899611 -1.9431388 1.9337296 66.928574
3.0667799 -1.9513006 1.9295903 42
0.14438665 -1.7624097 1.8924183 11
0.20014369 -1.7975986 1.8935989 8.6999998
0.28895879 -1.8362787 1.8958751 5.8571429
6.7724857 -1.7874258 2.0575306 7.5
0.12008035 -1.6924212 1.8932151 11.5
0.15384161 -1.7414818 1.8932722 10.333333
6.799696 -1.7597876 2.0585961 18
6.8836098 -1.7214248 2.060919 55.666668
6.9594259 -1.691545 2.0629146 99.5
0.074936986 -1.6077681 1.8782718 15.923077
1.2123563 -1.5717475 1.8842111 2
6.6645622 -1.6390879 2.0585496 90.5
6.9201393 -1.6140523 2.0637443 82
0.041363716 -1.5547657 1.8276674 16
0.067130208 -1.5456667 1.8622319 17.5
1.1152039 -1.5041375 1.8831969 1.2857143
1.1918306 -1.5314445 1.8852499 1.2
1.4107776 -1.4758813 1.8970284 6
6.8329821 -1.4693079 2.0650256 78
6.8751354 -1.5252819 2.064687 77.666664
-0.021599293 -1.4192045 1.8943968 23.700001
0.089639425 -1.3773742 1.8373252 6
0.98016083 -1.3663809 1.8834326 1.5
6.7269382 -1.4002259 2.0644565 51
-0.069690466 -1.2992311 1.8953381 24.25
-0.04465723 -1.3440707 1.8952621 24.5
0.082372189 -1.290833 1.8402894 7.5
0.16974497 -1.2727876 1.8458055 9
0.73792803 -1.2712383 1.8758771 15
0.79351878 -1.2712266 1.8786556 5
0.88924265 -1.3063772 1.8817976 1.3125
0.95529473 -1.3446324 1.8832489 1.8
6.6941366 -1.3227201 2.0653803 45
-0.1037159 -1.2077651 1.8909693 20.666666
-0.020388603 -1.1747594 1.8389171 3.25
0.088161469 -1.2325256 1.8428476 5.6666665
0.28169107 -1.1764424 1.8557118 9
0.59312987 -1.204802 1.8712665 30.5
0.70483363 -1.2012265 1.8771844 16.5
0.79559505 -1.2469938 1.8798116 6.5714288
6.706275 -1.244833 2.0671172 66.25
6.7434044 -1.2121224 2.0684209 100
-0.16713405 -1.0806205 1.8965065 21.6
-0.11366391 -1.1187379 1.8756224 14.454545
-0.00031089783 -1.1173797 1.8421634 3.2
0.11198688 -1.1278057 1.8481361 3.6666667
0.18792534 -1.1192248 1.8527201 4.5
0.53536224 -1.1171763 1.871815 25
0.57657278 -1.1067441 1.8744297 22.75
0.68887043 -1.1505034 1.8785166 15.5
6.6159172 -1.1257904 2.0677826 45.666668
6.6505318 -1.1255982 2.0684104 34
-0.19250035 -1.0010235 1.8732529 15.833333
-0.086679459 -0.99960929 1.8414161 3.25
-0.04114747 -1.0239379 1.8431978 3
0.081157446 -0.99891967 1.851128 4
0.29499781 -0.99348265 1.8634624 4
0.40310538 -1.0548813 1.8671204 9
0.57530594 -1.0048528 1.8784803 1
4.9064379 -0.9770959 2.0395215 1
6.532855 -0.9902783 2.0688753 54
6.5618753 -1.0260141 2.068716 33
-0.26328993 -0.88403946 1.8970172 29.25
-0.22681928 -0.91331059 1.8640267 14.1
0.35069013 -0.94812769 1.8682941 4
4.916153 -0.9514361 2.0402288 8
6.5908995 -0.92269486 2.0711892 79.5
-0.27663827 -0.8070932 1.8706026 24.25
-0.24642038 -0.8543008 1.8369346 4
6.5314322 -0.78638095 2.072669 60.5
6.567749 -0.83880264 2.0723438 79.333336
-0.31000829 -0.71300036 1.8696787 21.913044
6.5088415 -0.72245473 2.0734448 78
-0.37818956 -0.61775464 1.8979858 50.727272
-0.30704474 -0.60697275 1.8409768 5.6363635
-0.24304962 -0.65527207 1.8434227 4
6.4752617 -0.62348622 2.0746551 92.833336
-0.41687083 -0.52028394 1.8983834 43.400002
-0.30682445 -0.52568483 1.8519546 8.1428576
6.4143867 -0.49690968 2.0758584 82.25
6.4503784 -0.55246419 2.0754986 94
-0.39800596 -0.38814288 1.9017049 4.25
-0.31922436 -0.40875864 1.8827835 48.125
-0.21337008 -0.41626859 1.8522115 10
-0.12098289 -0.38998348 1.8586524 8
6.3865223 -0.43587834 2.0764532 77.333336
-0.37165642 -0.31497687 1.9041526 55
-0.32639718 -0.30335909 1.871558 30.733334
-0.20016503 -0.30864245 1.8559561 2
