# .PCD v0.7 - Point Cloud Data file format
VERSION 0.7
FIELDS x y z intensity
SIZE 4 4 4 4
TYPE F F F F
COUNT 1 1 1 1
WIDTH 1254
HEIGHT 1
VIEWPOINT 0 0 0 1 0 0 0
POINTS 1254
DATA ascii
7.031117 1.6764268 2.9238801 68.235291
7.794857 2.377965 2.9580929 77.384613
-1.2827988 -1.827014 3.5758419 56
-1.1474471 -1.79564 3.5613358 91.75
4.6505251 7.8625069 2.0057898 79.5
4.4389811 7.7867002 1.9774873 44.666668
4.751606 7.763432 2.0270464 100
4.8261991 7.6082687 2.0481038 73.800003
5.5001659 7.4296432 2.172637 28.200001
5.5456314 7.3703527 2.1849332 27.5
5.8103104 6.790134 2.2804966 53.714287
5.842186 6.7112637 2.2935934 58
5.8676925 6.7039547 2.2990305 52
5.9362235 6.5142441 2.3302031 55.722221
6.9073153 4.4255905 2.7987237 82.099998
7.0304637 4.1792474 2.8660326 100
7.1665869 3.8924227 2.9452167 100
5.8758969 1.1132295 3.2863433 83.526314
7.3123207 3.5471604 2.9634142 77.25
7.4450498 3.2327142 3.0380197 59.81818
6.7572837 1.5275033 3.3603423 71
6.406589 1.3592596 3.3302295 74.681816
7.6100965 2.9004498 3.1483765 75.454544
7.7107835 2.5175836 3.224184 64.125
7.4674988 2.0094268 3.2964156 64.14286
7.0602632 1.6764365 3.3162825 60.25
7.8020444 2.3859847 3.3075438 71.041664
7.5631666 1.9373627 3.3733001 73.166664
7.8711357 2.2788839 0.77998996 3
7.922049 2.1844993 0.78908229 3.5
7.3404236 1.5774386 0.97033441 3
6.9024653 1.3820721 1.060955 3
6.8514366 1.371832 1.0695167 3
1.4858295 6.1594996 0.49941278 1
1.2300901 6.0530572 0.54714322 1
4.8328738 7.4543257 0.41604602 8.5
3.911164 7.3674707 0.048342228 1
1.5201302 6.1624584 0.4969027 1
5.4342127 7.3809052 0.40594769 15.230769
4.8796291 7.3492689 0.38786864 7.3333335
5.8086681 6.5792589 0.5757587 7
3.0978324 4.867126 0.78978658 1
6.492321 5.238008 0.834068 3
6.4570966 5.2399864 0.8359006 3
-1.8978301 0.81443572 1.5282087 1
-1.9169284 0.72580266 1.5311151 1.1818181
6.7452102 4.5506082 0.96158826 15
6.8614941 4.3112531 1.0023129 10
-1.3710128 -0.32458425 1.7289565 1
7.0512218 3.9488764 1.0616248 7.6666665
-1.1084907 -0.51026011 1.7089634 5.7142859
-1.2067389 -0.57927656 1.7541978 1
7.3011765 3.4049377 1.1494012 8.3076925
7.4699559 2.9729588 1.2184768 7.3333335
0.82760382 -0.83638811 1.8392609 4
0.50439805 -0.88649964 1.7671114 5.826087
7.7383986 2.4370427 1.2967048 12.166667
3.7926049 0.18673682 1.6918821 7.2222223
3.4953434 0.039082527 1.6848135 7.9375
3.0282059 -0.23142934 1.7665534 3.375
2.6063933 -0.49558139 1.8115842 13.897436
0.88495201 -1.3322232 1.7920973 8.125
0.45599666 -1.5204322 1.8063381 4
7.8417768 2.2197111 1.2924699 14.6
7.0728192 1.5412648 1.4168532 17.083334
6.6349883 1.3218943 1.3564795 10.230769
6.1989322 1.1408842 1.3275967 4.695652
5.7000904 0.92210865 1.5034931 6.2777777
5.2538681 0.6943872 1.5473043 9.860465
4.8676224 0.52066731 1.5850365 9.8039217
4.3089628 0.25155497 1.5956755 6.1666665
4.0938697 0.14885545 1.5539258 5.3333335
3.3723609 -0.17638373 1.6798179 11.575
3.0226631 -0.34944844 1.7017634 12.482759
2.6923616 -0.51332521 1.6928017 11.304348
2.3010857 6.6435814 0.60528314 3
1.9344804 6.4700651 0.76302898 9
1.4987859 6.2807298 0.89377922 9.780488
1.1522183 6.1166449 0.92067975 9.625
0.66235435 5.8912029 1.0150336 11.430769
0.41579288 5.7488031 1.1221095 8.666667
-0.097002596 5.5725403 1.1680431 4.625
-1.6680609 4.8248873 1.3146219 1
4.7889266 7.4499893 0.57326293 28.333334
3.8240426 7.1401043 0.87985075 10
3.4442675 7.0706358 0.85222954 6.5294118
2.9989619 6.9432478 0.8142029 7.6610169
2.5430398 6.6224728 0.83235443 5.5333333
2.1081901 6.4289317 0.89144981 7.3333335
1.1573929 6.068543 1.1190044 4.4166665
0.78670841 5.837111 1.144794 21.869566
0.27476233 5.4899178 1.1809244 25.272728
0.083406717 5.3145857 1.1938477 21.270834
5.4040532 7.3961868 0.69023061 30.636364
4.9611473 7.3732557 0.67985737 23.892857
4.4819446 7.0700922 0.91281056 13
4.2936969 7.1214228 0.88316512 15.8
1.8724791 5.5342398 1.2286589 1.6
1.7219594 5.5753326 1.2196059 2
0.98461223 5.0689998 1.2562959 1
0.70208335 5.0408754 1.2533234 1.3571428
-2.0450506 3.2704172 1.5975885 4.6666665
5.5497112 7.0939379 0.7056917 26.789474
5.3391452 6.9004326 0.98494035 3
5.0864472 6.6267042 1.0359659 2.5
2.2088189 5.3660793 1.2632639 1
1.3026801 4.8210726 1.303153 2
-1.7741269 3.0689657 1.4835076 29.220097
-1.909098 2.7719085 1.4390874 28.022223
-2.6131241 2.3406458 1.6073595 10
5.7933965 6.5888386 0.73254621 19
5.3300338 6.4028025 0.99657232 13.642858
5.2184105 6.4803019 1.0642079 13
3.233999 5.0473342 1.3288888 2
2.8946607 4.903368 1.1811386 2.3684211
2.7021952 4.8325896 1.3536879 2.2
2.1558836 4.5571136 1.3595408 1.375
-1.8782107 2.5657802 1.4852809 15.509434
-2.5036523 2.1740732 1.6572245 35.442623
2.9867792 4.5881867 1.2067474 8.7586203
2.5994196 4.286634 1.4145708 4.6750002
2.372407 4.1133022 1.4434438 10.333333
-1.7434934 2.0496676 1.6578758 15.765517
-1.9675008 1.7404364 1.721347 41.177418
6.2739959 5.5010862 1.098804 10.5
2.9886472 3.927326 1.5043403 2.1707318
2.4805968 3.7447717 1.503253 1.8247423
-1.1225572 1.4797767 1.6466146 1
-1.9514209 1.3189149 1.7819139 43.044178
-2.0291176 1.0514116 1.8213232 32.90625
6.3720827 5.314764 1.0892875 13.857142
3.4237418 3.6624506 1.515321 2.25
3.1686845 3.5232146 1.5959194 2.26
2.7449858 3.2680626 1.5510691 1.2592592
-1.1042348 1.4185907 1.6537107 1
-1.9010249 0.87131047 1.7636678 22.181818
-1.8676587 0.74095011 1.8642325 36.420406
6.587749 4.8394976 1.2217 18.733334
5.2442207 3.8051586 1.5652413 1
3.885536 3.1890748 1.6197143 2.9411764
3.4190326 3.1184404 1.6566664 1.2592592
3.0071301 2.9706855 1.6003611 1.0588236
2.5199952 2.6698694 1.6198707 1
-0.56062818 1.055779 1.8052809 6.0666666
-0.95370913 0.47920752 1.7908895 1
-1.708717 0.51948237 1.720827 2
-1.727167 0.44529152 1.883935 27.063637
6.8047643 4.3322878 1.3769257 18.4
5.2828317 3.795213 1.5671248 1
3.9630799 2.9809234 1.7080914 1
3.6105809 2.8051794 1.6893533 1.375
3.1369054 2.5771267 1.6580298 1
2.2808244 1.7043383 1.8487403 16.472221
0.51377964 0.85193682 1.789191 1
0.022015482 0.64845276 1.9186592 33.853535
-0.21651348 0.58318329 1.9333748 37.120483
-0.91449296 0.37098289 1.8014482 1
-1.420509 -0.16213918 2.2009609 30.033333
6.9325199 3.8599331 1.4009962 13.214286
3.4978838 1.7419388 1.7825323 1
2.477989 1.5388494 1.8409622 35.568626
2.104491 1.2107526 1.8020104 2.5
1.5876579 1.1621969 1.787578 4.25
0.13764417 0.44373083 2.1212201 24
-0.025176942 0.33487058 2.1570125 66
-1.1247563 -0.44888639 2.1850991 34.166668
-1.2867832 -0.44354582 2.2689593 32.64706
7.2475123 3.3790066 1.4425731 5.25
3.660517 1.2876235 1.8478858 1
1.954909 0.59199905 1.8727524 1
7.4255323 3.031672 1.5603873 18.5
5.1758986 1.5109867 1.8647251 11
3.7370839 1.091489 1.8752326 1
2.7906845 0.48865175 1.9168268 1
0.47683379 -0.79528451 2.3147385 21.294117
0.088200599 -0.89980531 2.3689098 35.400002
7.6555376 2.5061717 1.637244 28.860466
5.2375159 1.4038726 1.8818437 5
5.17277 1.4585401 1.8738159 1
3.8092136 0.24743915 1.999192 42.278259
3.4671006 0.086933374 2.0460985 36.380001
2.9536705 -0.20641446 2.0367241 13.478261
2.5793836 -0.42996311 2.1337271 56.509258
0.87544882 -1.2259033 2.434392 35.75
0.39520565 -1.4421113 2.4137855 18.75
7.745317 2.2316389 1.6544874 29.35
7.479804 1.9247139 1.7312706 14.066667
7.0935984 1.6262298 1.8157626 13.025641
6.6419153 1.4621658 1.8479464 12.285714
6.1247778 1.3098519 1.8198297 25.333334
5.6935835 1.0515982 1.8529963 24.304878
5.2834687 0.78946924 1.9323934 29.662651
4.8118963 0.58372712 1.9758689 33.023529
4.5054493 0.43274832 1.9462882 3.3333333
3.8903081 0.17612553 1.9439809 4.8000002
3.3274803 -0.11690116 2.0617344 43.642857
2.9944763 -0.26487541 2.1461961 71.75824
2.6875882 -0.41120338 2.2044196 83.058823
1.4647746 6.3110323 1.364079 61.927273
1.1506523 6.1703386 1.3889544 65.81604
0.71303689 5.9793272 1.443393 71.043304
0.27404982 5.794364 1.5435647 76.5
-0.18580529 5.5926542 1.5642556 69.093384
-1.3176175 5.0485878 1.7373302 44
-1.509666 4.9510603 1.7453361 78.321426
3.8170955 7.1690855 1.234287 32.136364
3.5001612 7.1333351 1.252727 30.868422
3.0225852 6.9884453 1.2577907 39.849316
2.5525303 6.6860161 1.3106868 40.453125
2.1598628 6.5082378 1.3704021 44.757008
1.6134812 6.3853922 1.4456877 53.666668
0.59844327 5.7635117 1.3144841 18.4
0.28743333 5.5617919 1.4260883 46
0.045506239 5.2726917 1.3796611 35.835052
-0.85199273 4.5538054 1.7298727 5
-1.2581019 4.4853258 1.6720572 30.636364
-3.0967741 3.3381839 1.8471661 29.25
-3.4787889 3.4206977 1.9997032 16
5.3685822 7.4461546 1.1922364 69.914284
4.9675479 7.4055023 1.1989651 29.285715
4.5336137 7.1373415 1.2129951 29.928572
4.2979145 7.1363697 1.2289805 41.357143
-1.0777292 4.2924395 1.6473622 16.5
-2.0210028 3.2590952 1.6585798 5
-2.2962286 3.2529876 1.720024 31.133333
-2.870322 3.0849781 1.9955134 32.02
-3.1309464 2.8537385 2.1521149 13.181818
5.4665914 7.2261763 1.2216336 66.588234
5.098105 6.6352048 1.3194034 16
4.5617208 6.3880219 1.2085814 1
4.0066395 6.5073905 1.175876 1
-1.754511 3.1949739 1.7446733 27.576923
-2.1549644 2.9872267 1.7922575 38.826088
-2.6943898 2.6374516 1.9989424 39.205608
-2.9166515 2.5281327 2.1093378 30.347826
5.4095364 6.3567238 1.3086622 41.473682
5.256494 6.4384174 1.2928166 43.090908
2.8909457 4.9636273 1.6994157 38.12381
-1.6813132 2.4789162 1.801205 6.3333335
-2.5387049 2.2171946 1.9959654 52.677967
-2.7302034 1.9755619 2.1683285 54.67857
5.9495416 6.0953121 1.2911358 19.625
3.2660694 5.0230651 1.8392887 16
3.0017076 4.7169871 1.6989912 42.456791
2.7645063 4.351542 1.6429819 12.767442
2.4392512 4.1380715 1.8326825 41.361343
-2.0939279 1.7780284 1.9741882 53.695122
-2.450808 1.62113 2.2263675 50.338345
6.1481194 5.7730808 1.5045825 82
2.9008088 3.9066339 1.7773918 24.866667
2.5334525 3.8975968 1.8543416 55.547009
-1.9685351 1.4163021 2.030827 41.846153
-2.250252 1.1801872 2.301892 55.592762
6.3906145 5.2401052 1.5081377 75.696968
3.0254195 3.5531416 1.939654 42.17094
2.9230442 3.5379438 2.0556436 1.9
-2.0221579 0.78412271 2.3215978 52.706612
-2.296149 0.61350274 2.5211029 84.666664
6.550869 4.8910923 1.6076018 58.580647
4.0366397 3.655035 2.0303359 1
3.2253008 3.1784604 2.0317612 35.82243
-1.9046296 0.28159666 2.4601407 10.989247
-2.1140237 0.22393656 2.3130088 68.888885
6.7802601 4.3808455 1.6893873 50.833332
4.1007991 2.9728439 1.9772731 20.130434
3.6499503 2.8587587 2.0051837 4.3030305
2.304924 1.6747079 2.0005598 10
-0.03507331 0.66307521 2.1814864 54.130436
-0.20002565 0.61675119 2.1927772 40.044445
-1.6577834 -0.16126227 2.5481281 9.503067
6.9302907 3.9458668 1.7918357 41.32
2.4044163 1.5568531 2.0826874 52.234043
-1.3689981 -0.46881866 2.4342775 24.448277
-1.5730873 -0.73100305 2.7131763 60.482143
7.1658998 3.5250328 1.9683496 59.724136
-1.2449389 -1.1652372 2.603816 88.64286
-1.4630315 -1.0107157 2.7500863 53.62162
7.3779235 3.1005497 1.9711416 50.666668
0.56473333 -0.76576471 2.4401126 55.227272
-0.09368822 -1.2825463 2.634016 32
-0.19796738 -1.3391135 2.6455004 48.75
-0.88350379 -1.6769431 2.865782 92.117645
-1.1567676 -1.7798536 2.8546777 78.844444
7.6216879 2.5736079 2.1099777 58.195122
4.5815573 0.74096322 2.566958 31
4.2709446 0.60530329 2.5709729 52.42857
3.7701645 0.27141666 2.3355541 44.599998
3.4621959 0.13185763 2.4199715 46.25
2.9421442 -0.051265955 2.5953977 37
2.5012705 -0.41245055 2.4421735 70.954544
0.72680813 -1.2689917 2.7652268 90.81356
0.26931322 -1.4382222 2.7860084 71.41259
-0.14702013 -1.6505272 2.8185699 89.663269
-0.60844457 -1.7370222 2.9070277 85.909088
7.7327242 2.3088973 2.2057509 80.333336
7.5002584 2.0103133 2.2337523 37.272728
7.1015668 1.666036 2.2749443 50.108109
6.6533866 1.474264 2.3115304 48.388889
6.1316147 1.2897239 2.3632319 54.192982
5.7206392 1.0630503 2.3818998 59.653847
5.2797384 0.84021592 2.4026942 68.986839
4.8222256 0.63915086 2.4362729 75.021278
4.431293 0.45035911 2.4951096 68.118645
3.9118545 0.23558927 2.5848069 50.822224
3.4374878 -0.0053486824 2.5941148 72.339806
3.0126193 -0.21931863 2.5643983 93.164284
2.6111717 -0.40452361 2.6277878 91.023438
1.493413 6.3944402 1.7206123 70.833336
1.1710966 6.2418151 1.6998651 73.30159
0.69113374 6.0314131 1.7180126 70.599998
0.25771046 5.8315687 1.7121506 71.476189
-3.76948 3.5817909 2.2359374 3.8333333
4.7074971 7.6643543 1.6756513 79.639999
4.1743617 7.6191387 1.7002797 4
3.888875 7.4868393 1.7166035 42.560974
3.4408329 7.2831964 1.7228451 50.107143
2.9945703 7.0751247 1.7031169 54.177418
2.5258825 6.8627753 1.724118 63.559322
2.0623856 6.6439857 1.6925435 73.263885
1.7404816 6.5123563 1.7555994 65.26667
-3.0495856 3.3559484 2.1375079 13.25
-3.726712 3.5028553 2.2045627 30.636364
5.3523369 7.5404139 1.6598479 86.96154
4.8830299 7.493206 1.6992605 68.69841
-2.9401784 3.1556592 2.1561825 30.24
-3.211797 2.8312614 2.3054786 41.290321
-3.1327622 2.4870515 2.392781 62.549999
5.7537441 6.7489405 1.9506514 31.5
5.7376871 6.7409058 1.9667844 39.666668
2.9563749 5.027957 1.9491175 44.5
-2.9229534 2.0430977 2.45329 58.733334
3.1265631 4.9802952 1.9222443 41.666668
-2.7010062 1.5327822 2.5519593 62.096775
-2.9794147 1.375177 2.5423427 1
-2.5558057 1.2385916 2.597995 64.36364
-2.568264 1.0739154 2.621295 81.75
6.4144568 5.1890068 1.9184413 47
-2.1913195 0.61816001 2.6741309 63.413792
-2.3524411 0.68128276 2.7416675 75.342857
6.521378 4.9582758 1.9638462 80.25
-2.0030463 0.35752487 2.7144973 4.7777777
-2.0877056 0.2477603 2.8483446 64.628571
6.853128 4.2532382 2.1080427 26
-1.6243414 -0.32339382 2.7991323 3.8333333
-1.8677033 -0.19866204 2.9244223 62.540985
-1.5889913 -0.38386536 2.8152344 3
-1.6459159 -0.65033126 3.0159063 62.625
-1.4962778 -0.97931194 3.1098285 54.599998
7.4211817 3.0903988 2.7002404 85.909088
-1.2579508 -1.7983344 3.2202699 64.117645
7.6072497 2.6613231 2.6738575 74.382355
3.877785 0.4185133 3.0065336 40.142857
1.936834 -0.49755239 3.0601106 46.952381
1.7163258 -0.6039052 3.0801551 81.533333
0.70322835 -1.1876009 3.099721 69.830185
0.29174113 -1.4231007 3.2161367 77.790001
-0.18395242 -1.5870426 3.2124395 55.112499
-0.66374695 -1.7405479 3.2686141 76.839691
-1.1122056 -1.7778509 3.3267276 83.160713
7.738853 2.3687065 2.7180226 86.925926
7.5171232 2.0156965 2.738939 45.599998
7.1257396 1.697459 2.764909 58.736843
6.6534667 1.4765007 2.8144855 61.48077
6.2490115 1.2883912 2.8435178 60.739132
5.7098808 1.1027707 2.8818364 49.898304
5.3169999 0.86386156 2.9188566 53.551281
4.8571439 0.63446569 2.9219224 77.152176
4.4298325 0.44503975 2.925792 78.0625
3.9135814 0.27028942 2.9399705 51.051949
3.5378451 0.069387913 2.9170229 46.037735
2.9947336 -0.22446704 2.8969824 90.454544
2.6002815 -0.41182017 2.9441364 91.047623
1.5790613 -0.89141083 3.1742816 96.764709
1.4408363 -0.9590168 3.1901016 88
4.7224898 7.7422924 2.0475945 84.333336
4.1920433 7.6745596 1.9833821 11
3.9891386 7.5793858 1.9628084 44.5
5.3617315 7.6350527 2.0869575 87.333336
4.9557672 7.5785847 2.0640199 65.75
5.7126112 6.8960657 2.2435768 40.875
5.7359304 6.8180437 2.2532396 45
6.8673906 4.3966794 2.7199678 66.5
6.9895325 4.1504669 2.7491524 92.730766
7.1566844 3.7867486 2.8693991 91.36364
7.6624427 2.6801832 3.1448584 52.777779
7.7655177 2.4140596 3.1541891 72.916664
7.5334048 2.0813751 3.2017212 65.285713
7.1123772 1.6937844 3.153738 55.650002
6.7388496 1.5139426 3.1949732 60.64706
6.2458596 1.2767121 3.1960449 69.058823
5.8313847 1.0819727 3.1665652 74.230766
7.4944916 1.8779286 3.2960954 76
7.2895346 1.7743632 3.2794366 62
5.434485 7.1523867 -0.33484554 1
4.8936524 7.1716833 -0.26626182 1
8.0089874 2.1704907 0.59431589 0
7.6233416 1.9500556 0.69217384 0.5
7.6723189 1.8100734 0.70758462 0.5
6.3822422 1.1367018 1.0123535 4
4.686831 7.6778412 0.28456557 8.125
5.490077 7.3719473 -0.03581202 5
3.0721755 4.8955011 0.66702127 1
7.3997951 3.2881312 0.85169208 7
3.0665619 3.6426377 1.0836608 1.0526316
7.7371864 2.5074821 1.0191407 6.5555553
3.3294683 3.1468568 1.150955 1
7.8760595 2.2256315 1.086158 22.5
7.7454562 2.2329743 1.1468717 9.5294113
7.5604692 1.8565875 1.2715873 8.75
7.0302124 1.5322313 1.3706177 9
6.8967385 1.4775951 1.3908485 9
6.5309439 1.3134433 1.4482036 6.4000001
6.1471796 1.1062675 1.3200037 3.75
5.9355917 0.99640632 1.3212159 4.6666665
5.4621177 0.77562714 1.4300759 5.4545455
4.5358706 0.36324382 1.6320165 4.1999998
1.7143893 -0.78699994 1.7932292 5.4166665
1.5186191 -0.96538639 1.8353531 6.7777777
0.7123341 -0.87830234 1.8237242 6.5416665
0.52506101 -0.89630294 1.8244495 5.6785712
-0.82980394 -0.79066968 1.7882924 1
-0.98546952 -0.64496946 1.7814732 2.5
1.2729909 -1.1805501 1.8215771 8.3035717
1.0082277 -1.293622 1.8459404 12.846154
0.54962695 -1.4947484 1.8831809 6.25
0.54221594 -1.5146458 1.8834291 9.5
4.6370206 7.7162733 0.47062802 6
5.4287295 7.2640972 0.77972448 16.117647
4.7670851 7.3320093 0.87683898 2
4.6573429 7.3707056 0.87093216 7
3.5944793 7.2633696 0.75850713 2
5.509892 6.9718599 0.79679608 23.6
5.062449 6.6755161 0.99389124 7
4.3145695 7.1410723 0.91695291 5.8571429
3.9295797 7.165019 0.90077633 26.555555
3.4381878 7.0940819 0.86325079 10.181818
3.0501227 7.0226154 0.87458128 4.818182
5.82127 6.4775019 0.79416513 17.666666
5.3298864 6.3862915 0.9765923 10.578947
5.1097884 6.5617476 0.9553231 9.125
6.236577 5.6664267 0.82516676 3
6.5913434 5.0292563 0.93214989 3
6.3913431 5.2903843 1.0400902 6.1923075
6.6454802 4.7794547 1.1158829 18.272728
6.5008001 5.0233803 1.2749244 24.714285
2.9055314 4.8662806 1.0770282 7.8000002
6.9997659 4.035533 1.0991278 13
6.8557973 4.2823067 1.1830503 8.34375
3.0287616 4.5025864 1.2208356 5.4000001
2.8826878 4.6026931 1.2698207 8.0555553
2.3882852 4.732172 1.3813717 1
-0.95134026 4.7937737 1.3241518 57.636364
-1.2640997 4.8867865 1.277863 40.346939
-1.5426199 4.8235617 1.2959507 35.759258
7.0847435 3.7489183 1.2672479 11.4
6.9008002 3.9458809 1.4619253 8
3.0450647 4.0026026 1.5058213 1
2.832587 4.1160269 1.3968575 3.3913043
2.4214652 4.1379547 1.4894811 1.8571428
1.7858602 3.9871116 1.4683863 1
1.2554328 4.1018567 1.449693 7.1702127
-1.248189 4.3588362 1.3645511 28.945946
-1.591231 4.2809272 1.3473259 15.529411
7.3033218 3.3000441 1.5085098 29.950001
3.4977283 3.4821923 1.5929215 1.5
3.1999047 3.5400653 1.5867654 5.9285712
2.7398837 3.6750908 1.5333637 2.5833333
2.136106 3.6304293 1.5296272 1.1346154
1.8534628 3.7825413 1.4988718 1.2222222
-1.646191 3.9192524 1.4918455 58
7.620069 2.6173697 1.5315007 30.48
4.00951 3.1135905 1.6511089 1
3.7552733 3.0177736 1.5057006 5.1219511
3.2716811 3.0298259 1.5936142 1.3636364
2.5077591 3.0221786 1.6255291 1
2.3112953 3.2624116 1.5870733 1
-2.1579244 3.3607759 1.647972 9
7.6584077 2.2567058 1.5641824 27.24074
3.4609947 2.8260086 1.7098409 1
2.5390127 2.8318131 1.6586703 1
1.9619235 2.8100631 1.642292 8.9574471
7.4623241 1.8716658 1.6148748 20.32258
7.1710758 1.6873763 1.7055261 17.793104
-2.5479579 2.3714571 1.6996521 42.390244
-2.6686709 2.3454144 1.6117818 26
6.8906274 1.5251973 1.7067274 14.692307
6.5823326 1.4280213 1.7335341 15.391304
6.0572028 1.2935213 1.7703211 15.111111
5.7596302 1.1890492 1.8664367 8.333333
5.1006289 1.4658048 1.9234509 10.25
3.2003565 1.6290584 1.8401437 2
2.3830602 1.5532821 1.8417543 44.2449
2.2707534 1.6680807 1.8720372 15.3125
-2.4370635 1.9948206 1.7282813 20.805969
5.8009148 1.0411544 1.7259451 17.9
5.5029364 0.91818976 1.8158102 19.204819
5.1771817 0.74251735 1.86007 14.5
-1.9394183 1.4737415 1.8275971 48.292011
-2.3135347 1.701344 1.8500625 61.714287
5.0471296 0.66294885 1.8836619 8.909091
4.4391551 0.39482784 1.9239577 18.700001
4.1904583 0.36134815 1.946816 9.2222223
3.6119995 0.72691202 1.9719003 2
0.86310136 0.77048111 1.8875209 9.1454544
-1.4250356 0.89488232 1.7764218 2.9047618
-1.9598405 0.94011962 1.8924421 34.964672
0.79078782 0.2116251 1.9459593 1
0.29599428 0.48908854 1.8915198 1
0.071154609 0.49559593 2.0009727 35.673683
-1.6998732 0.38680363 1.9828576 31.133028
-1.8332472 0.61546886 1.9566612 35.735294
1.3714771 -0.41469407 2.0476949 3.5
0.53969294 -0.13150644 1.9800807 8.1000004
-1.5754344 0.085263014 2.0373116 30.796747
1.6912448 -0.73259902 2.1977539 43.153847
1.4202168 -0.83775544 2.1693463 40.221428
0.73333907 -0.83493757 2.1555004 42.423077
0.50791085 -0.83138943 2.1990728 65.92308
-1.0409207 -0.54319239 2.311882 25.375
1.236236 -1.0729895 2.2399721 61.441559
0.98786312 -1.2003274 2.2467451 71.929413
0.50709903 -1.2633638 2.2353127 56.833332
0.4919939 -1.406935 2.4547443 100
5.3777943 7.3642626 1.2509125 81.206894
4.7864628 7.4114275 1.1668547 52.133335
4.6825767 7.4031324 1.2517161 38.200001
5.4954524 7.100728 1.252773 77.14286
4.2962208 7.1713409 1.2076628 38.708332
3.9521046 7.2173567 1.2511096 37.943398
3.44347 7.1664619 1.2721465 29.458334
2.9888654 7.0470181 1.3186238 39.357143
5.826683 6.4292421 1.3934819 28
5.4043374 6.4231977 1.36717 30.23077
5.0770383 6.6509123 1.3112298 19.75
3.188952 6.3874555 1.1879978 1
2.9866772 6.54667 1.2418942 5.6666665
2.5677621 6.7859325 1.4721298 24.5
6.1617622 5.7257214 1.4523513 53.200001
5.9999194 6.0308003 1.3033153 13.777778
6.3285642 5.3727212 1.486709 61.848484
6.6388025 4.7055678 1.6008799 56.384617
6.4805675 5.0450449 1.6047747 84.300003
5.3349552 4.8303347 1.4654615 1
2.8484685 5.0131412 1.718271 37.320755
6.7765694 4.3532619 1.641951 29
3.0955465 4.6109056 1.5602497 21.545454
2.8717823 4.6797566 1.6948743 32.974358
1.0217096 4.6196647 1.7456429 32.666668
1.000308 4.6217861 1.7442048 17
-0.79367477 4.7688594 1.6556735 56.98148
-1.1116719 4.9001637 1.5946866 81.433632
6.9958067 3.7329531 1.7776501 19.363636
6.9191771 3.8862596 1.7349308 46.299999
3.7292192 4.257534 1.9466878 4
3.1590106 3.9376678 1.7554839 7
2.6391387 4.0926352 1.7318909 31.494623
2.3797393 4.1048188 1.9265449 38.252525
1.0368336 4.3762503 1.5749793 10.95
-1.1265234 4.5264683 1.5092628 23.333334
-2.3175895 4.5519028 1.878602 70.625
-2.7167745 4.3960667 1.9366921 82.111115
7.2472711 3.3999636 1.8680028 41.827587
4.0100102 3.7334909 2.0482047 1
3.0285883 3.6240394 1.9269012 47.010204
2.6875362 3.8156877 1.9407642 41.1875
2.3982122 3.9012833 2.03637 56.976189
-1.8534273 3.955965 1.7537494 46.807018
-2.0902908 4.0244069 1.8784647 25.642857
-2.9306295 4.2833962 1.8994269 78.947365
-3.2086775 4.1121373 1.9472553 79.64286
7.5444794 2.7267537 2.0246115 57.310345
4.0139637 3.0963526 1.8541003 8
3.6763992 3.01594 1.9717598 51.551723
3.2067783 3.2152753 1.9920479 42.522579
-2.124212 3.3557298 1.7169021 27.555555
-2.9604247 3.4257219 1.9078218 14.2
-3.2526851 3.6657834 1.9015889 49.54023
-3.6628301 3.5185244 2.124507 45.272728
7.6381741 2.3609667 2.0986829 51.5
3.4823661 2.8630602 1.9605343 1
1.8963212 2.730428 1.9251434 1
-2.3077137 3.1127715 1.9022849 10.8
-2.8748953 3.0678182 2.0884686 32.42857
-3.1217244 3.3401144 1.9343808 31
7.4180436 1.9817669 2.2270393 65.379311
7.191165 1.7870866 2.12081 28.25
-2.6104214 2.3839877 2.0720434 50.369564
-2.7367954 2.5910769 2.0531044 38.349113
-3.2698047 2.7622433 2.2675476 8.333333
6.9063711 1.6035651 2.2314124 47.3125
6.5393629 1.469051 2.2559476 46.827587
6.048862 1.3298768 2.2008836 45.969696
5.7747154 1.2339189 2.1692133 41.5
2.3735955 1.571087 2.0924504 59.791668
2.2953162 1.665859 2.0036891 18.777779
-2.5155294 2.1060877 2.0970314 44.490494
-2.7841558 1.9931437 2.2429805 43.910892
5.8242254 1.1319789 2.3097293 54.777779
5.5325046 0.99740887 2.3418696 62.319149
5.1905627 0.80646825 2.3238287 72.416664
-1.9498681 1.5105181 2.0727973 54.534592
-2.4040852 1.5818009 2.2592254 66.362549
-2.7410159 1.8287067 2.3059134 33.57143
5.0308118 0.72735262 2.4529092 72.692307
4.4322753 0.44589472 2.4042416 73.564514
4.1636662 0.38000774 2.2371721 22
0.93512386 0.89305329 2.2242479 28.916666
-2.0920167 0.96144974 2.3170052 51.490444
-2.3869848 1.1744267 2.4304361 53.577587
4.2495761 0.36198187 2.5058844 86.25
4.1994414 0.32866287 2.5065551 52.111111
-0.01752799 0.57834864 2.229727 45.872341
-1.7142861 0.40200067 2.2555456 38.75
-1.9989705 0.57338166 2.4285088 39.312237
-2.2936974 0.61017013 2.5862994 80.5
2.1280015 -0.40509272 2.828274 14.25
-1.7024924 -0.0084571838 2.5036683 13.824428
-1.9000465 0.17581511 2.6055775 5.0176992
1.8123597 -0.65483117 2.7102842 40.128788
1.4559381 -0.75561786 2.6078973 77.638298
0.66216922 -0.77833676 2.4721167 59.727272
0.5233168 -0.7870791 2.4840398 69.483871
-1.0799741 -0.52811337 2.3924885 50.941177
-1.6398489 -0.37433386 2.6930351 14.264706
1.2886404 -1.0228975 2.6665311 95.598427
0.88698119 -1.2050061 2.7319078 93.341614
0.34903961 -1.2643201 2.6992538 18.424242
-1.1811389 -1.1255219 2.5614533 55.888889
-1.5318694 -0.87018609 2.8240247 52.865383
0.60669166 -1.3342457 2.931694 95
0.34634405 -1.4522655 2.8283541 91.714287
-0.12219856 -1.6638181 3.0164764 89.160004
-0.80055028 -1.624697 2.8217621 73.362503
-0.98503625 -1.6775067 2.7988005 82.400002
-0.38218984 -1.7841909 3.017334 95.071426
-0.56501979 -1.8261597 3.0211897 83.185188
-1.1457218 -1.787112 2.9116292 78.466667
4.566113 7.8562469 1.6482842 100
5.3519745 7.4690523 1.7110832 77.434784
4.7655058 7.4902353 1.6651728 76.421051
4.5817652 7.7093296 1.6437321 84.306122
3.9520216 7.5941849 1.7400537 42.033333
3.6495271 7.4526463 1.7373018 44.599998
5.6817551 6.8193178 1.9768305 65
3.9562335 7.2307882 1.488905 45
3.3882592 7.3244972 1.7220465 45.82143
2.9351692 7.1212473 1.7726026 48.612904
2.6601346 6.9958124 1.7956729 52
5.7494283 6.6643372 1.848264 34
2.4294045 6.8831339 1.7822068 43.166668
2.049222 6.7207041 1.8436157 19.235294
6.4086385 5.2515955 1.9018693 91.5
6.5946074 4.8042679 1.9817649 99.599998
6.4819899 5.0590544 1.9354465 100
3.1025608 5.0189323 1.9494072 42.900002
2.894583 5.0450659 1.9841417 43.516129
6.7372108 4.5207372 2.1208131 76.5625
2.2856908 4.2238078 2.0252697 36.57143
-2.3009448 4.5299335 1.9814641 6
-2.7412877 4.4206753 2.0517664 70.150002
7.2800579 3.412997 2.5190663 71.608696
3.0626266 3.5292003 2.1417918 1
2.510273 3.756408 2.1030116 38.75
-2.9590523 4.3175035 2.0756586 70.444443
-3.269443 4.1356106 2.1196055 75.237503
7.5381532 2.8049519 2.5639446 66.333336
7.3586388 3.2027473 2.6560688 53
3.124779 3.3312244 2.1790493 1.75
-3.3385944 3.798105 2.1657891 64.171425
-3.6876059 3.5999079 2.2383957 66.741936
7.6474061 2.4472013 2.5962389 69.545456
-2.9999897 3.1739228 2.2303813 25.481482
7.434113 2.0256495 2.6977553 78.818184
7.2162056 1.7853742 2.7050943 59.9375
-3.0467024 2.7982683 2.2969785 4
6.9519086 1.6592702 2.7284021 60.772728
6.537281 1.4639506 2.7120063 60.414635
6.2447228 1.3735293 2.7960052 37.36842
-2.9485681 2.2762923 2.375916 1
5.9896116 1.2026283 2.8127196 59.923077
5.5330663 0.98461628 2.8283274 69.395836
5.265182 0.85167396 2.7725809 76
4.9807858 0.717857 2.7709227 75.61364
4.5159154 0.50705194 2.8553166 63.42857
-2.6043274 1.2237507 2.5666945 32.64706
4.302402 0.39965153 2.9636297 54.925926
3.9682074 0.2553637 2.9567521 53.714287
3.6178308 0.062395334 3.0659909 86.666664
-2.1639571 0.49622083 2.7169838 30.911764
-2.3286848 0.59878182 2.7064042 70
2.1341619 -0.41016293 2.9255853 12.666667
-1.7837948 -0.099377394 2.8371129 1.8461539
-1.929713 0.17465138 2.7927349 2.1891892
2.2895226 -0.55963016 3.0228114 85.606064
1.8544865 -0.68076801 3.015058 56.043957
1.5894828 -0.86313105 2.9269545 100
-1.7037021 -0.40780878 2.9196098 26.095238
1.6473274 -0.8673954 3.1114869 87.400002
1.3529608 -0.98917747 3.0574925 93.188034
0.86788088 -1.1753433 3.0891368 71.757278
0.50154543 -1.1553087 3.1728764 59.799999
-1.549491 -0.88841486 3.0468488 51.910446
0.61721826 -1.3223894 3.0911541 93.199997
0.31335539 -1.4489105 3.1549125 88.43158
-0.12651175 -1.5616524 3.199286 59.554054
-0.7545622 -1.6426604 3.2093701 75.59375
-0.34058762 -1.7655737 3.2924714 91.07692
-0.66741496 -1.7813666 3.300266 72.596771
-1.1545415 -1.7865236 3.3015149 72.75
4.5731268 7.9298868 2.0527828 64
5.3597164 7.5677948 2.169554 73.692307
4.9365196 7.6329393 2.1658092 41
4.4864011 7.8373966 1.9960122 28.799999
3.9963913 7.6760006 2.0301092 40.53846
3.628185 7.5030632 2.0211544 44.25
5.693511 6.8800297 2.2446306 48.599998
5.5737219 7.1502285 2.2776628 45.75
3.3647404 7.3746605 1.9983418 47.222221
5.7456722 6.7751369 2.2624395 48.153847
6.4326916 5.3669257 2.5616832 52
6.6169915 4.9692154 2.6376405 50.285713
6.4965534 5.222744 2.5881691 49.444443
6.8199639 4.5407348 2.6949091 68.071426
7.0888515 3.9733958 2.8505864 100
6.9648986 4.2522068 2.7892232 100
7.2683425 3.5437105 2.8717971 79.435486
7.5116386 2.9820251 2.9898887 69.9375
7.3934574 3.2267985 2.9160562 68.571426
7.7061238 2.5112391 3.0466971 76.978722
7.4619951 2.0593362 3.152564 72.571426
7.2608652 1.826093 3.1322296 59
7.032124 1.7141469 3.1612599 60.210526
6.4918065 1.5356095 3.1170413 49.904762
6.3236132 1.3631974 3.1858635 75
6.0240092 1.2211763 3.1654012 76.764709
5.5273037 1.0075643 3.1288409 61.142857
5.3757124 0.88134849 3.1326358 6
2.4500494 6.5723324 -0.013435721 1
2.1465473 6.4396534 0.066351533 1
7.4193106 3.1797552 0.85048449 11
7.5425739 2.8832338 1.0151267 8.6296301
7.78339 2.3841209 1.0549343 13.333333
2.6422992 -0.51962996 1.5681777 4.5
2.5348444 -0.5711453 1.6430726 3.5882354
0.024774194 -1.7585487 1.8706399 20.125
-0.23813403 -1.8618829 1.9217516 12.551724
-0.56824404 -1.8007224 2.0187464 6
-0.37792373 -1.9483459 1.9100033 10.764706
5.3526607 7.3647814 0.57092977 13
5.4362369 7.1703796 0.68387115 20
2.4709544 6.7393141 0.73852181 7
2.1869202 6.5656986 0.82869697 14.4
1.6759557 6.4027376 0.81659257 7
5.7686372 6.496419 0.91614938 8.6000004
5.1548901 6.5076246 0.92833841 9.166667
1.9859875 6.415554 1.0141132 18
1.5306348 6.3165817 0.93824255 11.379311
1.3600606 6.2698841 1.0062275 14.4
6.0357413 5.9582224 0.81303728 6.5
5.8092427 6.4056616 0.93143064 6
5.3545871 6.3572607 0.95067197 6.3333335
6.1088548 5.7875156 0.84211349 14.666667
-0.6765908 4.9756484 1.3235786 5.5925927
-1.0050761 4.7928934 1.3501885 16.055555
6.3776302 5.2239504 0.93580377 13.3125
3.099246 4.9101949 0.89864695 2
2.9013119 4.8244495 1.0339032 4.0540543
1.0129477 4.5958238 1.2551066 12.173913
0.40966332 4.4005518 1.4128408 1
-0.66501808 4.1398473 1.4293447 1
-0.8933717 4.1164713 1.4678493 22.4
6.6692038 4.6017008 1.0375282 31.4
6.5801167 4.7949476 1.0060902 19.555555
2.839376 4.3713903 1.2855334 3.5333333
2.4803548 4.0588155 1.1899874 10.6
1.2260092 3.9638219 1.474682 12
1.1899644 3.8887289 1.4890026 7.4000001
-0.03295958 3.7930875 1.4708514 8.9142857
6.8061752 4.3470893 1.0776591 27.357143
2.9744501 3.724618 1.2630388 6.4285712
2.5430031 3.8952942 1.2101374 10.085714
1.7918748 3.4767826 1.5485636 1
1.5111572 3.6438189 1.5200074 4.7105265
1.1511599 3.7841654 1.4590257 10.875
0.47354984 3.5295224 1.5184436 1.5714285
6.9848919 3.9380383 1.1434159 14.4
3.1967907 3.2651331 1.2996188 15.645162
2.332253 3.0274301 1.6146982 1
2.0322118 3.2352281 1.5854614 1
0.91844237 3.155633 1.5725166 2.1428571
7.3636742 3.1952305 1.1737685 18.25
7.2857504 3.3480783 1.2480671 16.333334
4.0619321 2.884172 1.226007 6
3.7335181 2.9640365 1.3880954 15.625
3.2854834 3.0666695 1.37196 17.200001
2.566926 2.8114591 1.6466378 1
1.9748548 2.8172281 1.6604264 14.888889
1.6910707 2.6470199 1.656232 8.5185184
1.0844549 2.5349166 1.6510499 1
7.4878454 2.907047 1.4015789 20.69697
1.730213 2.2540464 1.6981181 1.5
1.1453899 2.018275 1.7150043 1
7.6939697 2.4398046 1.4817119 23.516129
1.0750991 1.4231522 1.7914805 30.774193
1.1390041 1.1839625 1.8587766 27.708334
0.97447431 1.0857722 1.8733673 34.950001
6.6487265 1.4222105 1.4172841 3
1.1991912 0.8545481 1.9664766 59.599998
3.7358336 0.19584608 1.7594411 5
3.6931324 0.1937331 1.7632908 7
-0.53977215 -0.18937993 1.9458607 1.3571428
-1.188885 -0.37384009 2.0087645 17.470589
-1.4112484 -0.20320535 2.0751548 21.830769
-0.98789388 -0.58912897 2.1168919 39.701344
-1.2664135 -0.53510904 2.1424546 15.4
-0.14030594 -0.99429131 2.1762867 13.4
-0.33780622 -1.0078259 2.1356349 11.981818
-0.67643201 -1.2560918 2.0767586 1.4
0.020295501 -1.6453171 2.3536758 61.551723
-0.22190362 -1.7752442 2.3123293 63
-0.63289458 -1.6933005 2.3160386 37.807693
-0.42682493 -1.8715544 2.3403521 71.101448
-0.55337095 -1.8376107 2.4858637 43
5.3895917 7.2786179 1.248709 44.545456
2.4058247 6.6383667 1.2880142 19.625
2.2558799 6.5726061 1.3182812 26.65
5.6010585 6.6330833 1.306529 19.285715
5.1413951 6.5756369 1.2561525 28.913044
2.0307417 6.4756784 1.3901551 30.4
1.8460675 6.4083996 1.3400667 42.866665
5.9947147 6.0573883 1.2772579 17
5.700911 6.3454895 1.348339 23.5
5.3380246 6.3940172 1.2495172 41
1.5512 5.615489 1.2734665 1
1.4203857 5.5845122 1.2793539 1
6.1835737 5.6364369 1.3082967 21.6
1.0927852 4.9070444 1.4758688 1
-0.73768491 4.9170218 1.490844 52.301888
-1.0555744 4.8334394 1.5041454 51.81081
-1.5901904 4.8902745 1.7140887 73.019051
6.348866 5.2886543 1.4668615 61.142857
3.1219182 5.0409689 1.3598728 1
2.8572049 4.838728 1.6796902 59.793102
0.99730384 4.6494021 1.5865309 38.455883
-0.17088401 4.3657885 1.8226403 55.583332
-1.0263721 4.2077141 1.6525304 21.181818
-1.5505749 4.1963654 1.5843465 8
6.5658822 4.8220634 1.4997755 54
2.8276973 4.3839121 1.5979877 16.717392
2.4506278 4.199698 1.7615006 22
1.2218491 3.9096119 1.6234068 3
1.1926719 3.8830204 1.5586419 9
-0.063557863 3.8678651 1.7263753 36.347015
6.7236285 4.4358339 1.6160092 50.785713
6.6702271 4.4724874 1.6364071 50.333332
3.3074598 3.8073206 1.6385297 3.3333333
2.9332166 3.8581684 1.8044531 28.58
2.4813852 3.9371505 1.8322794 31
1.2323183 3.8792958 1.7251209 15.148149
1.0715834 3.8091114 1.7927802 7.3333335
6.8558722 4.0262823 1.7128468 32.777779
3.3395176 3.271807 1.7014169 2.5714285
3.0951762 3.4220562 1.8582715 51.898552
1.7122015 3.0134783 1.9784133 3.75
7.2421198 3.3878083 1.8962581 51.549999
6.2899604 3.0818946 1.6817937 1
4.0068712 3.0165246 1.7737942 5.125
3.5698938 2.9480505 1.8912396 22.956522
3.2540069 3.1297452 1.9674013 50.214287
1.8922673 2.6866136 1.828106 1
1.7876695 2.7878852 1.9367573 10.139535
7.4611197 2.9413829 1.893327 56.1875
7.3425636 3.1733088 2.0076635 52.285713
6.5677056 2.973429 1.6998495 27
6.3614225 3.0412431 1.6886106 1
1.0901366 2.1630673 2.103678 1.25
7.6565742 2.4978004 1.8826983 52.205883
1.0811652 1.4527092 2.122911 54
7.5943956 2.2281973 1.9287131 2.5
1.1388899 1.209035 2.1297591 29.24
0.97450292 1.0623232 2.1478171 38.724998
1.1800746 0.86653137 2.1108468 50.400002
1.0053293 0.68131328 2.2464824 12.5
-1.9184629 0.23247898 2.5064306 4.5
3.6843314 0.26878715 2.4156852 32
-1.596565 -0.18000221 2.4938927 10.751004
-1.8026915 0.010450363 2.586875 1.9655173
3.8293934 0.18595016 2.5143471 75.400002
3.6423025 0.24289298 2.3707304 36.400002
2.9054909 -0.19856262 2.6329737 41.35294
2.7495089 -0.17560291 2.5738544 28
-1.1054246 -0.60116553 2.3808334 32.666668
-1.444728 -0.59305668 2.5974841 23.756411
2.8334637 -0.31944561 2.7211859 72.666664
2.5511951 -0.45003152 2.6653917 59.220341
-0.9593783 -1.1566095 2.4820065 11.5
-1.4102188 -1.0652652 2.7247984 46.424656
0.54013336 -1.3944843 2.8166311 94.297295
0.13607752 -1.5761838 2.7647138 83.516129
-0.23917854 -1.6312795 2.6706471 66.45977
-0.80528688 -1.6929743 2.757144 78.146667
-1.1435859 -1.817353 2.844352 73.758621
-0.34592223 -1.8098762 2.8197892 95.344086
-0.56045735 -1.8518019 2.8382826 55.9375
-1.166163 -1.8482516 2.9657927 78.529411
3.3137012 7.2668381 1.474144 4
3.252667 7.2737703 1.7871813 20.666666
5.3605404 7.378644 1.6522171 63.833332
2.9821653 7.1558714 1.8469543 46.23077
2.566483 6.9467859 1.7841594 44.200001
2.1058617 6.7289305 1.7989289 47.57143
5.7809176 6.5642166 1.8690903 26.333334
-1.5907253 4.9367104 1.8905935 66
6.2812266 5.4033065 1.8601015 21.5
3.1898823 4.9790907 1.8720073 25.857143
2.9059372 5.0179191 1.967517 32.933334
-3.2033978 4.1786895 2.0600619 58.892857
-3.3943405 4.0761113 2.0931206 51.583332
2.2890472 4.1887393 2.0091972 43.842106
2.8767614 3.7619405 2.0786543 42.18182
2.3796515 3.9181762 2.0904343 54.206348
7.0999041 3.7703576 2.1537137 91
2.9814529 3.4750967 2.1267409 24.086956
7.1920795 3.5982959 2.2975152 76.5
4.1294904 2.917444 2.2110524 16.6
3.8714986 2.8450668 2.1987171 27
3.1332169 3.0983369 2.1950989 1.8333334
7.4717722 2.9774413 2.3794823 66.839996
7.3518696 3.2178965 2.3320088 65.545456
7.6525087 2.586297 2.3799648 73.571426
7.6735535 2.3071272 2.4797745 39.222221
6.672194 1.5309186 2.7458754 53
6.5265975 1.4628204 2.7743831 54.5
5.941998 1.5448453 2.4461536 20.6
4.7454152 0.6057775 2.9016366 69
4.5130548 0.5031513 2.8348303 65.482758
4.1534939 0.39329219 2.6746542 10.6
4.3334665 0.40789223 2.9230957 58.285713
3.978076 0.27486205 2.88064 38.5625
3.4978123 0.082970142 2.9226098 45.932434
3.1169772 -0.15518808 2.9395719 57.733334
-1.5685341 -0.80470347 2.9185338 35.25
2.9036088 -0.28773713 2.9799714 67.919998
2.5898719 -0.43853188 2.9575112 84.373497
2.1985116 -0.41020513 2.8479178 1.5
-1.4637233 -1.018822 2.9724689 35
1.0723883 -1.1551843 3.0185361 87.813332
0.67745376 -1.3357916 3.0445194 88.29464
0.20481479 -1.5101845 3.0774007 69.289719
-0.2082926 -1.545665 3.1606498 60.346153
-0.80779672 -1.7038622 3.1042852 85.757576
-1.1486975 -1.805501 3.0635648 66.166664
-0.0077283382 -1.6585345 3.1207743 90
-0.30024016 -1.7826178 3.131897 85.39286
-0.73930693 -1.8211851 3.2048273 69.641029
-1.215184 -1.8708134 3.1965184 59.81818
3.3399286 7.3659935 2.0550256 7.3333335
3.2543845 7.3228512 2.0484996 30.333334
5.4482613 7.3498554 2.244122 47.433334
3.0517411 7.2263699 2.042311 38.454544
2.5893097 7.0027962 2.0485253 41.454544
2.2963114 6.8619204 2.026166 46.5
5.7170372 6.779315 2.251616 45.32
5.99577 6.2574902 2.5010493 40.333332
5.8594437 6.5258284 2.4052882 49.904762
6.2027698 5.8331957 2.5681777 52.142857
6.3630152 5.4731455 2.5536122 52.448277
6.6889176 4.8300657 2.7459967 51
6.5651093 5.0440369 2.6031981 50.675674
6.7849684 4.5763879 2.6709025 63.384617
6.6789289 4.7106133 2.3699532 34
7.0282774 4.0792413 2.7574685 88.048782
7.2314024 3.6255028 2.7873926 87.647057
7.4657803 3.0917051 2.8136971 76.192307
7.3548441 3.3299479 2.7929368 79
7.6477671 2.7108943 2.907275 70.03846
7.7198172 2.3638716 3.0556631 53.5
7.4812088 2.10817 3.0255504 67.400002
7.2511301 1.8244317 3.123138 58.8125
6.8675561 1.6353333 3.0795946 62.555557
6.5122137 1.457052 3.17133 52.888889
5.4325213 0.95303583 3.1575994 45.857143
4.9408255 0.79074836 3.1126657 14
4.6318521 0.57024646 3.1117206 44
4.4004765 0.43179286 3.1066527 76.199997
7.4842424 3.1514268 3.1007881 93.714287
7.6942854 2.7244434 3.2033825 96.6875
7.7445955 2.3826499 3.2688026 75.714287
7.5180511 2.1113324 3.2786484 93.36364
7.4963245 1.9337803 3.3067052 70
1.7980157 6.5146523 0.013730526 3
4.5649633 7.7439179 -0.57710898 4
4.682333 7.5433741 -0.5292207 5.4000001
5.271637 7.5681911 -0.59247696 6.1999998
5.3105288 7.4574871 -0.4715873 6.1999998
-2.4719145 4.2838168 0.72410834 1
-0.5000447 3.6088843 0.99131638 1
1.6111714 6.3976555 0.52609563 7.1428571
1.78781 6.4839792 0.4997474 7
4.4015312 7.7135925 0.26868379 25.75
4.0651841 7.5627074 0.36541688 7
2.8834591 4.9509325 0.67973721 3
2.811461 4.9357829 0.68823504 4.4000001
2.4178143 4.080596 0.92457259 11
2.4237871 3.9140673 0.87412751 4.8235292
4.6866269 7.5045834 0.23741066 19.357143
5.199719 7.5311179 0.34052455 9.875
1.3477744 -1.144329 1.720045 11.25
5.8147287 6.330925 0.57429361 3
5.8466353 6.2569489 0.58853543 29.5
3.4461484 -0.13099003 1.3572271 4.090909
-2.1507401 2.9493084 1.2130697 1
-0.80303788 4.8925424 1.0540791 12.136364
-0.96522164 4.3445878 1.0857788 10
-1.7462388 3.0925226 1.4529843 19.826086
-0.51549196 4.9569001 1.010942 10.24
-0.60975999 4.9038219 1.100436 8
-0.7438792 4.1704736 1.3319212 9.5
-0.94166845 3.6396813 1.2221376 10.214286
-1.1982577 3.3472199 1.4372284 13.142858
-0.21528769 3.8082972 1.4360867 1
-0.44291896 3.5886831 1.4146688 6.9571428
-0.75200504 3.0852981 1.4900352 20.876713
1.5692674 6.3588181 0.8188659 6.6842103
1.1939346 6.1916809 0.94063109 13.166667
0.0076282024 3.821826 1.2865895 12.411765
0.018866181 3.1894765 1.4747057 22.842106
-0.18531001 2.9596138 1.5068445 25.561905
1.8609 6.5452819 0.63971186 2
1.7357959 6.4153914 0.8452481 6.8461537
0.75194919 3.5265641 1.4132713 1
0.12014937 3.0712924 1.5386703 28.777779
0.34610164 2.8260236 1.4960585 2.6666667
1.215597 3.8888612 1.3593361 10
0.94769967 3.6187606 1.3926592 1
0.72214568 2.7585337 1.4986839 1
0.72204173 2.6747839 1.5162435 1.1363636
0.50118363 2.0111704 1.5557783 9
3.7283607 7.407866 0.40785801 13
3.4799042 7.2008486 0.67647862 14.678572
1.7135032 3.5726948 1.3911066 1
1.0285228 2.6483474 1.5108321 1
-0.36872637 -0.88119805 2.0010099 8.3523808
-0.48872453 -1.5330569 2.0341444 1
3.9767699 7.3790741 0.60728407 9.5
3.8088875 7.1847959 0.75427806 14.923077
2.8225336 5.1574221 1.2059867 1
2.8464746 4.8062077 1.0711715 2.95
2.5423059 4.1491218 1.1968428 5.9565215
2.5516844 3.935215 1.1776701 9.5500002
2.1042089 3.593236 1.3808528 1
0.95269763 0.84217191 1.8622249 35.016949
0.62356603 -0.4566021 1.8874013 1.1
0.39513314 -0.8424542 2.0011446 45.703297
0.13622987 -0.96471453 2.0884449 41.158916
-0.04824698 -1.7181283 2.1846747 69.352516
-0.22180223 -1.8030339 2.24721 78.074074
4.8911705 7.4542856 0.69115734 14.25
4.7423148 7.3891129 0.70425677 10.5
2.9921808 4.4767485 1.195093 11
2.8400426 4.0232563 1.3090501 10
2.7564473 3.8324776 1.0812747 2
0.64554083 -0.48420262 1.888027 1
0.6243211 -0.83494008 2.0665104 45.426395
0.30710042 -1.428147 1.9549024 7
0.25540817 -1.5727264 2.204329 63.918034
5.2537088 7.4306774 0.67173779 17.16
5.0403666 6.5843992 0.8205272 4.3333335
1.416308 -0.88478613 1.8543442 2
1.3336056 -1.0663713 2.1318634 73.75
5.4060946 7.1982756 0.75898623 14.6
5.4738269 7.0148807 0.66181338 7
5.0829153 6.5751657 0.85576558 1
1.5471867 -0.96865344 2.2112088 67.571426
5.9171729 6.1263947 0.94921196 42.857143
5.9549375 6.0447016 1.001949 13.5
3.4044924 -0.085524797 2.1258953 4
-2.488945 4.4184971 1.8016646 96.75
-1.4266629 4.9197712 1.7722487 97.666664
-1.572916 4.8547683 1.7737114 91.150002
-2.0854242 3.4346504 1.8440498 34.390244
-0.80729246 4.9003668 1.4470752 42.153847
-1.3299574 4.2461596 1.8771471 9
-1.841855 3.2352386 1.8635569 18.672413
-0.28922117 5.4849935 1.2384248 7
-0.50304145 5.0170407 1.3296534 47.299999
-0.57498562 4.9585552 1.4334726 35.799999
-0.92688674 4.2088408 1.5016755 41.5
-0.96094841 3.6832156 1.7221192 35.178082
-1.0387427 3.5364799 1.8432124 50.523811
-0.20038605 4.4677043 1.7477956 75.63636
-0.11591971 3.9903603 1.6422933 20.555555
-0.45932382 3.6956687 1.8148785 34.758621
-0.73430353 3.3271489 1.7614077 34.598839
1.557387 6.3691225 1.2893076 39.0625
1.0894753 6.1580586 1.1522291 4.3333335
-0.0088174343 3.7988267 1.7036572 40.311829
-0.15708363 3.7186737 1.8494196 47.727272
-0.10255039 3.0050936 1.775684 45.93671
1.7322799 6.4302573 1.2846429 30.833334
0.22473824 3.1644707 1.6446037 12
0.085288286 3.046443 1.7885848 45.227272
-1.3798957 -1.0039388 2.6654451 42.555557
1.2319192 3.8634672 1.609231 14.7
0.61263716 2.0217204 1.9234812 23
-1.245136 -1.1939975 2.6916347 17.25
-1.1981602 -1.8855196 2.90974 1
3.7372479 7.4457369 1.3815548 37
3.5203109 7.2336907 1.2110794 37.086956
-0.46418375 -1.5506264 2.6244974 100
-0.73655504 -1.7300986 2.7612183 90.528412
-1.069218 -1.8706721 2.8819132 70.153847
4.4870501 7.8000321 1.1618509 100
4.0551591 7.3275557 1.1765075 43.933334
3.836122 7.203403 1.1361177 41.466667
2.8922853 4.8994551 1.6393772 47
2.6645656 4.295197 1.5449848 15.1875
2.4231443 3.9341044 1.8168671 40.905407
1.0289615 1.0978377 2.101234 42.714287
0.98043764 0.88274616 2.0467227 43.40625
0.16085458 -1.0642442 2.4233599 58.14706
-0.1086061 -1.5404245 2.5876932 93.060867
-0.26446354 -1.8260463 2.7285252 88.123932
4.6204119 7.69169 1.1823323 79.5
4.5340228 7.2256098 1.13799 30.90909
3.1909041 4.9771132 1.6996914 28
3.2308941 4.7380939 1.5674114 4
2.942214 4.0077729 1.5382259 14.714286
2.6885452 3.8217826 1.7387506 11.25
0.5949353 -0.81785905 2.3425076 55.266666
0.57745159 -1.3442746 2.5933025 79.225807
0.26333332 -1.5813705 2.6937542 87.573883
-0.015786409 -1.7396475 2.9264874 90.666664
5.2321467 7.4973149 1.1138391 75.583336
5.0540681 6.6626792 1.1461368 35
1.4808506 -0.78863835 2.4874959 29
1.2889961 -1.0749341 2.577692 74.949364
0.90654719 -1.2681807 2.6554799 87.15686
5.3846617 7.2463279 1.0573039 97.666664
5.3868699 7.164113 1.0708143 35
5.1087766 6.5533462 1.165206 65.199997
1.8315734 -0.78147483 2.6635289 57.372093
1.5567681 -0.95001924 2.6055465 80.571426
5.8622823 6.2779689 1.2263834 47.799999
3.4986019 0.010634542 2.4489503 48.958332
3.2939138 -0.07273984 2.4444609 36.07143
4.1196017 0.33276457 2.4782076 8.5238094
3.7665229 0.15096229 2.4784532 29.342857
4.7075315 0.66606069 2.3579144 25.34375
4.4602838 0.45105815 2.455884 32.952381
5.2578478 0.83934832 2.443377 41.200001
5.0781527 0.7535795 2.4456074 40
6.9628019 1.6688113 2.4225941 20
6.8390007 1.602047 2.4250517 16
-2.7145174 4.3549623 1.9781789 80
-1.9795463 4.6911359 1.9017131 79.099998
-2.4560251 4.473443 1.9411335 82.528305
-2.6475973 4.3844633 1.9746053 80.5
-1.3795482 4.9761572 1.8798385 84.40741
-1.6948516 4.8344674 1.9103059 83.152542
-1.9619591 4.1169591 1.9519832 14.833333
-2.0180488 4.0696912 1.9529531 25.083334
-1.1673119 5.049087 1.9338014 64.133331
0.86117327 6.1365094 2.0400634 42.25
0.51778269 5.9722385 2.0466535 65.099998
-0.098202705 4.0829244 2.0148308 1
1.5575558 6.4369445 1.8135562 58.866665
1.1148239 6.2472014 1.9866858 61.608696
1.7830921 6.5410585 1.7989428 57.400002
-1.2280793 -1.9302856 3.0010867 1
3.5037565 7.36092 1.6943161 45.266666
-0.73211879 -1.7550448 2.9587975 81.891891
-1.0623271 -1.8831242 2.9893646 58.620689
4.4107985 7.7839651 1.5297754 36.75
4.0726733 7.6275105 1.6268766 40.291668
2.9548011 5.1330042 1.9197745 13
2.9598122 4.9978166 1.9337602 23.5
2.3852711 3.9919834 2.0265539 27.200001
-0.25645268 -1.8492361 3.0241728 80.292686
4.612886 7.742909 1.6278023 85.322578
4.7615991 7.4982224 1.6517682 67.26667
0.63517845 -1.4218556 2.9212437 88.352943
0.31707156 -1.5858077 2.9889455 77.473686
-0.008607626 -1.7443212 3.009129 80.714287
5.1957664 7.5959568 1.6863021 61.766666
1.2830826 -1.1126527 2.9208136 85.060608
0.92775404 -1.2851449 2.9315984 84.471909
5.5936632 7.0836482 1.9623096 44
1.8817157 -0.72184181 2.9152977 44.709679
1.5605117 -0.97330868 2.9328022 75.10714
2.7449236 -0.15257788 2.86658 21
2.5814219 -0.43301177 2.9574757 46.040001
2.2274899 -0.6471169 2.9155774 75.631577
6.0369596 6.1773362 2.0713639 35.42857
3.5626693 0.11556214 2.8448939 21.291666
3.2838311 -0.08302319 2.9485631 34.488373
2.820847 -0.37586582 3.0397191 61.5
6.4872041 5.1470919 2.0587459 40.5
4.1160522 0.30358362 2.8291678 45.46154
3.8026919 0.14046419 2.9156737 42.305084
6.519896 5.1635861 2.2706599 41
6.540071 5.0784979 2.1633222 21.285715
4.9663954 0.93755358 2.7106555 18
4.7708344 0.70550376 2.8152273 17.120001
4.4543166 0.43734795 2.8951321 52.361111
5.4177742 0.9485594 2.7308764 32.714287
5.0785832 0.80178702 2.7481103 26.777779
6.369791 1.491787 2.595916 46
6.0772309 1.2317374 2.7917235 43.642857
5.7463179 1.070497 2.80935 50.666668
7.5235415 3.1590409 2.6549852 45
7.608366 2.9709697 2.6929543 57
7.0352039 1.7009182 2.6912048 33
6.6721725 1.5281428 2.7275591 32.5
6.3898201 1.3738351 2.8044047 35
7.772625 2.646836 2.7618079 63.470589
7.5982704 2.1601067 2.8179765 71.25
7.2955904 1.8256401 2.7744336 35.599998
1.5236505 6.4666567 2.1279967 71.666664
1.228825 6.3223586 2.1026766 72.92308
2.1675854 6.7682762 2.1080439 58.75
1.8140253 6.6075258 2.1540978 67.545456
2.8004165 7.0794063 2.1575031 56.117645
2.4666042 6.9178653 2.139715 58.53846
3.4623289 7.3951821 2.1355608 54.53846
3.1031528 7.2289557 2.1893733 54.875
4.4084311 7.8417873 2.1022558 43.5
4.031837 7.6646037 2.1308737 47.086956
3.7383156 7.5265021 2.1510067 51.666668
4.6642013 7.8146315 2.1353197 81.800003
4.7958169 7.5827646 2.1344793 87.875
5.246336 7.6711884 2.1993284 67.85714
4.8621383 7.5406432 2.1711247 49
5.4717073 7.4475622 2.2646227 55.526318
5.6099215 7.1488576 2.2646298 50.349998
5.7819605 6.8454938 2.3891654 49.761906
5.9386544 6.4849153 2.4095187 61.5
6.0570722 6.2297077 2.4371819 47.884617
4.15763 0.27759063 3.1470113 53
6.5758152 5.2316651 2.6159644 70.625
6.7019596 4.9450631 2.6317201 70.28125
4.7655115 0.7465806 3.1720648 12
4.4461198 0.41541052 3.174468 49.875
6.8740759 4.6047068 2.7136405 77.055557
7.0157318 4.308908 2.7485926 90.958336
6.6043787 3.7966628 3.0662255 39.066666
6.5927324 3.3419738 3.1195874 14.466666
5.2173309 0.95801044 3.0841093 3.5
5.0773492 0.91931194 3.1998458 6
7.1727209 3.9731627 2.8223195 82.416664
7.3181343 3.6942997 2.8801694 79.125
6.6068268 3.0800037 3.1558967 28.333334
6.591958 2.7600906 3.1966863 35.842106
6.536397 2.2283621 3.2629776 34.777779
