# .PCD v0.7 - Point Cloud Data file format
VERSION 0.7
FIELDS x y z intensity
SIZE 4 4 4 4
TYPE F F F F
COUNT 1 1 1 1
WIDTH 1340
HEIGHT 1
VIEWPOINT 0 0 0 1 0 0 0
POINTS 1340
DATA ascii
34.390518 48.82032 9.1686125 14
29.852209 53.046085 9.368926 16.25
30.274755 52.884304 9.3765659 16
28.903147 54.125488 9.4472151 17
29.496702 53.401268 9.3913336 34
28.52352 54.409286 9.4601431 17
-14.400547 -46.432693 8.2539902 23
-13.577406 -46.337791 8.2144899 23
-12.489902 -46.352158 8.1788483 22
20.604431 -42.138687 8.944602 92.666664
20.923496 -42.000511 8.9414511 97
-10.825275 -41.257961 8.7925043 20
-11.073612 -39.218914 8.5454798 52
-10.01597 -35.760574 8.0595446 15
15.598941 -35.850643 8.8140097 11
-10.173044 -35.730938 8.0637016 15
-11.929865 -34.742874 8.035409 15
-13.559668 -33.744141 8.0114355 15
-10.615438 -32.926338 8.7845221 12
-10.435972 -33.236244 8.8167276 12
31.219011 -32.000027 9.3410664 19.5
31.856232 -31.723957 9.3684025 26.6
-10.804068 -32.641003 8.7567558 12
32.317543 -31.500854 9.386034 22
32.997211 -31.213024 9.4201708 14
34.01012 -30.780811 9.4743595 16.142857
34.544792 -30.530235 9.5017157 11
-10.913462 -31.108089 8.5484858 11
36.21772 -29.832523 9.6086845 19
36.705292 -29.618176 9.6408701 17
-12.631449 -29.979301 8.522336 11
-12.363121 -29.837917 8.4821405 11
37.175472 -29.384327 9.6693335 15
37.89016 -29.090904 9.7229671 18.285715
38.892059 -28.647472 9.7976837 18.857143
39.475605 -28.414616 9.8463144 12
39.963806 -28.175411 9.882884 18
40.822441 -27.752022 9.9493494 52.833332
45.970062 -25.560452 9.3530664 15
48.759033 -25.363873 9.7204351 16
49.199158 -25.053493 9.7554913 24
49.820061 -24.810024 9.8228436 43
50.781723 -24.476471 9.9326487 97
51.476089 -24.136135 10.005257 51
51.980354 -23.860416 10.056683 34.666668
52.320396 -23.464581 10.075479 17.333334
52.044098 -22.646038 9.9717112 16.333334
51.556953 -21.604149 9.8207102 16
51.00943 -20.355434 9.646636 15
51.304565 -20.937927 9.7335157 16
50.68647 -19.582695 9.5422478 15
49.07988 -16.131321 10.09244 11
48.888428 -15.512906 10.011792 23
48.509102 -14.555646 9.8736725 11
47.916443 -13.206143 9.6717806 10
48.139099 -13.719144 9.7476511 11
47.654617 -12.609391 9.5838699 12.2
50.715515 12.692811 9.8573093 10
51.710854 13.183965 10.073288 14.333333
62.66217 27.16885 10.378926 21
69.314499 26.899841 11.301081 91.199997
61.676834 28.108631 10.300351 21
62.146721 27.578468 10.332291 21
69.26548 27.598949 11.333168 30
60.758156 29.163017 10.242229 20
61.122871 28.699406 10.26193 20.200001
45.445953 36.48278 9.9858971 15
43.706764 37.704082 9.899869 15
43.047562 38.404522 9.8998661 15
41.350601 39.850937 9.8683891 75
40.234043 41.288025 9.9194565 15
38.753189 42.533909 9.9148388 46
38.057507 43.233021 9.9323902 68.571426
38.493187 42.738037 9.9133024 46
37.295948 44.456821 10.017731 15
37.661205 43.801159 9.9666557 47
36.168205 45.261971 10.013222 91.5
36.885452 44.85146 10.02953 39.666668
35.641369 45.825619 10.03967 83.199997
38.017963 53.495918 10.042506 21
38.423836 53.032669 10.019909 20.75
37.590385 53.918297 10.059151 21
-12.781916 -46.412525 9.538228 29.5
-12.837881 -42.649677 9.0624037 24
-12.819468 -39.839245 9.9221363 16
-10.921799 -39.353973 9.736639 48.333332
-11.422039 -38.159039 9.5910921 14
-10.349743 -38.478539 9.5741854 28
-14.678972 -37.784069 9.7522345 15
-13.611742 -33.042965 9.0154238 13
53.221825 -31.352737 10.869779 63.333332
53.810455 -31.102928 10.92809 55.333332
54.320511 -30.898415 10.980382 28
76.645676 19.800896 12.032351 40
69.764595 26.384586 11.33683 93
70.098083 26.043404 11.366132 72.666664
69.663788 27.978848 11.411101 31
70.224915 28.439621 11.51676 33
70.604462 28.82003 11.592254 34
44.324287 36.515327 10.935995 92.800003
44.939705 36.217857 10.989043 56.333332
43.403656 37.499226 10.932451 91
43.835129 37.03997 10.93347 93.25
42.439705 38.547371 10.938759 78
42.871902 38.095562 10.937576 80.166664
41.442154 39.592659 10.947886 78
41.949734 39.078758 10.944969 76.14286
40.904137 40.188122 10.960975 87.125
40.021965 41.141483 10.983864 86
39.072693 42.146923 11.01237 94.14286
39.527977 41.678143 10.999602 93
38.058071 43.229107 11.051873 88.428574
38.563812 42.692223 11.031383 94
37.148998 44.218246 11.097018 78.800003
37.535767 43.771385 11.072827 81
36.111595 45.333233 11.154148 92.333336
36.577587 44.817955 11.125223 84.800003
35.641228 45.826759 11.180857 94.599998
21.811302 -48.191669 11.145085 20
-14.690458 -42.477161 10.422411 20
-10.592424 -41.723488 10.070218 69
51.052841 -32.140461 11.947874 40
51.327995 -32.034939 11.977663 41
51.531494 -31.964863 12.000727 20
69.755997 26.356163 12.814591 77
70.076996 26.010208 12.846252 64.666664
69.28141 26.866932 12.76877 76.400002
69.464821 27.764107 12.856788 38.5
70.54686 28.771633 13.100318 41
28.902527 80.53907 12.969962 60
-12.732441 -46.676689 10.926652 23
69.754738 26.330387 14.305258 63
69.941879 26.167435 14.328923 64
69.276169 26.842319 14.252364 62.400002
69.070244 27.472866 14.259967 31
29.256134 80.863266 13.031611 61
29.612255 81.185898 13.093298 61
37.434021 -56.159023 13.568572 39
70.158012 25.898155 14.350826 32
69.497581 27.875065 14.369422 32
70.079796 28.331551 14.511871 33
29.224419 80.759048 14.871264 62
37.457848 -63.386028 14.684826 52
37.342354 -58.680046 13.947095 44
38.462875 -59.218884 14.129616 45
39.536404 -58.646313 14.140516 45
36.946754 -71.571899 15.925915 63
18.223568 -18.483414 1.509696 11
12.948071 -17.59211 1.4283191 9
12.151773 -17.302055 1.4182005 9
12.604742 -17.31736 1.4271913 9
10.996263 -16.165459 1.4182249 7.3333335
12.02844 -16.055218 1.4423251 7
22.016424 -16.138897 1.6222317 70.714287
22.592834 -15.826081 1.6376286 81.888885
7.8746505 -12.943927 1.4169888 5
5.9317384 -11.890279 1.3922873 5
6.4544687 -12.05067 1.4017553 5
7.1800618 -12.228919 1.4155681 5
10.768906 -11.921029 1.5039859 4
5.063077 -11.53638 1.3778954 5
5.4448962 -11.631557 1.3855162 5
12.988575 -11.051532 1.5691113 4
3.8778572 -10.028128 1.3778414 4.5555553
4.5230637 -10.315823 1.3888439 17.428572
5.320909 -10.213405 1.4113463 22.25
8.229866 -10.1575 1.4838626 3
15.750662 -9.7514143 1.6497775 3
16.135208 -10.245154 1.6462662 5
3.4307842 -9.7382755 1.3718033 4
6.4829602 -9.5198555 1.4547356 22
7.514286 -9.204318 1.4866184 13.5
9.6943188 -9.4023418 1.53373 4
10.673705 -9.3912315 1.5558516 3
11.974872 -8.707634 1.5984149 7.5
12.095675 -8.7815723 1.5993632 6
13.941633 -8.6852999 1.6385826 3
14.305234 -8.7967548 1.6431925 4.5
15.420444 -9.0392981 1.6588528 3
17.320961 -9.088788 1.6911633 3
18.366814 -8.7117863 1.7161925 7.3333335
8.65518 -8.5485077 1.5276544 15
9.579669 -8.3354235 1.5536885 6
10.217593 -7.8290052 1.5789269 19.833334
11.859212 -8.574935 1.5988206 3
14.657399 -7.9719458 1.6673983 6.181818
15.112903 -8.0916128 1.6733143 3.5
18.971077 -7.4205179 1.7519841 3
19.295145 -8.1927977 1.7413499 3
11.405481 -7.4034748 1.6141839 7.5999999
13.189252 -6.6482534 1.6673136 24.75
15.85121 -7.1551704 1.7063537 2
16.383747 -6.9731894 1.719352 4.8000002
17.07412 -6.7353029 1.7359147 3.6666667
18.638126 -6.6435213 1.7625756 2
13.794918 -6.3945704 1.6846391 12.857142
14.22702 -6.2541561 1.6958568 24
17.084713 -6.3227654 1.7446122 2
18.422417 -6.1118011 1.7700073 2
12.877537 -4.6121969 1.4706669 10
13.387148 -4.8209381 1.5263658 16.805555
14.352015 -4.6423941 1.4942687 11.08
15.530474 -4.4929323 1.515635 16
16.473768 -4.6985121 1.5953045 11
17.477779 -4.6562004 1.536243 44.31818
18.319374 -4.5943604 1.7244812 41.435898
18.94537 -4.4011593 1.8116809 29.5
10.635616 -3.8622589 1.451164 13.125
11.385758 -4.2484894 1.4536635 8.4375
12.376365 -4.4786119 1.4662879 14.740741
14.842223 -4.4753237 1.5084193 25.75
15.401186 -4.46064 1.5155585 19.08
16.23148 -4.4206743 1.5254281 14.777778
17.448957 -4.2064295 1.5423825 35.5
18.605785 -4.2858295 1.5430744 94.933334
19.143467 -3.9808311 1.6954414 56.60606
9.4797964 -3.0025425 1.4534611 11
10.140436 -3.4846153 1.4534197 7.1578946
18.734318 -2.6096878 1.7254896 87.5
19.3834 -2.7392807 1.7125198 35.28846
20.193439 -2.4798164 1.833414 30.416666
23.813686 -2.2854586 1.9097468 22
23.8969 -2.2558403 1.9111344 29
26.335827 -2.4052734 1.934574 13.4
8.3850431 -2.0800748 1.4531652 5.2307692
8.9716177 -2.598588 1.4534382 6
20.456299 -2.1821914 1.6649532 43.607143
21.319942 -1.8891935 1.7541258 39.836735
22.160881 -1.5437732 1.789432 32.612904
23.765617 -1.9279094 1.6037257 92.166664
24.343338 -1.8960867 1.7835666 59.633335
25.216438 -1.5167241 1.6417381 66.176468
26.243837 -1.7133226 1.9442266 62.692307
27.321785 -1.6914248 1.6790849 4.5714288
28.140171 -1.4632306 1.7709336 3
7.7335649 -1.706944 1.442801 0
8.0812855 -1.5698509 1.4619119 0.80000001
11.431086 -0.76048708 1.462234 14.305555
12.300506 -1.1040049 1.4625292 8.7555552
13.313197 -1.3083925 1.4676468 8.0238094
14.328184 -1.4013247 1.4718236 15.475
15.300648 -1.192946 1.4876361 6.3249998
16.303436 -0.9695363 1.4963247 5.1282053
17.188543 -0.60840178 1.5070162 4.6969695
22.447369 -1.2588425 1.634527 46
25.697109 -1.1034861 1.6071794 8.666667
26.486086 -0.83696461 1.644165 26.555555
27.217897 -0.74138927 1.6636949 14.235294
28.288557 -0.46440649 1.8637094 21.153847
6.613863 -0.58706045 1.4360468 0
9.7278128 0.32709646 1.4640207 4
10.268447 -0.052147388 1.4648552 11.283334
10.932648 -0.50341177 1.4626822 16.571428
13.421993 0.44141436 1.4688607 20.370371
13.925515 0.4577632 1.4724324 11.6
17.686039 -0.35771894 1.5128509 4.75
18.275167 0.046385765 1.5215985 4
18.893084 0.50837946 1.52949 4.4545455
28.366753 0.17219925 1.6049881 49.299999
29.216537 0.28312874 1.7521516 43.923077
30.146627 0.62107372 1.6997159 28.375
31.864967 0.98377562 2.0347729 5
33.044872 0.89333153 2.0444169 26.25
44.207375 1.2511821 2.1490965 21
9.6219883 0.4082675 1.4636353 3.8
10.71945 1.3518581 1.4687477 9.666667
11.230217 1.0345545 1.4659561 11.239436
12.248567 0.61940479 1.4651394 11.295082
13.115401 0.48222017 1.4694705 11.966666
14.296743 0.53390598 1.4772859 11.2
15.248993 0.8037529 1.4872271 11.142858
16.120989 1.2702832 1.500149 12.959184
19.362835 1.030654 1.5392981 4.1538463
19.795742 1.5602629 1.5477185 6.8888888
29.729298 1.0389404 1.6042635 63
30.126272 1.2551012 1.6027869 34.777779
31.171812 1.5383224 1.6672049 44
31.813093 1.9066668 1.59079 53.666668
32.892685 1.5243807 2.050662 6.3333335
43.693459 2.3640289 2.1568642 60
43.941994 1.8383477 2.1532853 63.125
10.438103 1.625298 1.4656448 7.9791665
11.217911 2.0888662 1.4712684 11.670588
12.281328 1.9861572 1.4775497 13.219858
13.207148 1.9759171 1.4813721 10.65625
14.122322 1.9238999 1.484499 9.3738317
15.188643 2.1990621 1.4991581 9.0519476
16.618855 1.6316619 1.5078673 12.2
17.127113 2.1407259 1.5171304 11.271187
20.30024 2.1057253 1.5503684 8.4750004
29.929272 2.5610707 1.6273355 15
32.352318 2.245069 1.5885569 37.625
33.150726 2.7530363 1.6732292 27.545454
40.859055 3.2346277 2.1410875 31
43.649757 2.52688 2.1582458 70
11.35058 2.9408896 1.4775401 14.566879
12.129622 2.9716766 1.4798242 14.672535
13.18623 2.9816988 1.4856662 13.913043
14.173124 3.0479946 1.4955842 13.048035
15.069862 3.1318834 1.5103903 16.827957
16.06992 3.0548832 1.5186875 8.7777777
17.607361 2.761858 1.5273937 10.952381
17.82868 3.2672737 1.537959 11.257143
20.475639 2.7969265 1.5659149 4.1999998
20.874884 3.2830667 1.5644147 4.448276
31.324368 3.2291813 1.6174213 10
32.167114 3.5770941 1.6100987 17.428572
32.894268 3.9345422 1.60423 29.799999
35.424568 3.5316958 2.0960555 81.5
40.901173 3.6266158 2.1456001 31.285715
42.96476 4.1334672 2.1691234 36.75
11.498355 3.5066535 1.4807441 14.319149
14.353535 3.7404022 1.5024178 12.479591
15.08579 4.0038233 1.511467 16.257643
16.114262 4.0535588 1.5309651 9.71134
16.704769 4.3372259 1.5410472 8.8965521
18.131039 4.0903687 1.5491405 12.388889
21.094246 4.1927328 1.5756691 2.6764705
33.446396 4.5122976 1.6030227 27.25
33.848042 4.6699972 1.5990685 16.666666
37.089817 4.3849487 2.1197503 90
42.515579 5.1403866 2.1752911 35.25
42.715424 4.6696205 2.172365 28.799999
15.240043 5.0042953 1.5219531 13.004566
15.959063 5.0261292 1.5422459 10.116279
16.819633 5.0489988 1.5506246 8.449275
18.283371 5.1028972 1.5620906 11.18
20.962944 5.1921835 1.5954196 2.8484848
33.821434 5.4597211 1.6075619 4.1999998
34.939682 5.6171122 1.5929846 2.75
36.013 5.825923 1.5794696 6
42.133503 5.8632307 2.1789355 50.099998
15.134873 6.0267096 1.540853 14.935622
15.845821 6.0486298 1.5609463 11.445652
16.726278 6.0576811 1.5651491 10.085714
18.165169 6.108932 1.5764616 11.169811
20.726725 6.1783772 1.612105 3.1944444
33.838921 6.3864713 1.6156262 2
34.929962 6.7411261 1.6027458 2.5
36.298172 6.5775318 1.5818231 6
39.179539 7.1220536 2.1645544 27
41.022274 6.7409816 2.1773775 37.5
14.164137 7.1557851 1.5627321 12.799043
15.005434 6.9276528 1.5706263 15.306306
16.198517 6.9972768 1.5795335 11.354838
17.515589 7.5239544 1.5990512 13
17.803902 7.0494013 1.5910401 15.09804
20.430655 7.2418532 1.6236768 2.8125
20.60582 6.747663 1.6182554 3
34.956734 7.2198458 1.6059424 3.5
36.130806 7.5953856 1.5916841 3
37.451035 7.9487963 1.5750706 6.5
37.584175 7.4304838 1.5697694 3
39.182796 7.4984274 2.1679423 24.833334
39.851692 7.8755126 2.1771975 14
41.053982 8.1843433 2.1905572 42.666668
13.319243 7.8530378 1.5572405 10.97931
13.9535 7.8926172 1.5720632 13.63
14.997039 7.9947491 1.5851992 11.764706
15.772483 7.8123488 1.5848566 8.2600002
17.134922 8.0815849 1.6030648 13.212121
19.98284 8.1572208 1.6330085 3.6829269
34.019741 8.8744926 1.6285123 2
37.450172 8.374424 1.5776371 4
37.727112 8.8064613 1.5760274 3
41.204918 8.4509859 2.19419 32
41.933456 8.8662691 2.2041917 35.5
43.220589 9.3682814 2.2198646 19
13.413664 9.0872993 1.5724162 4.25
13.996623 8.935482 1.5788798 8.2124996
14.720572 8.6442986 1.583797 9.3947372
16.000776 9.2068062 1.6046813 13.573529
16.651745 8.7214737 1.6029216 20.045454
19.235201 9.3264732 1.6395187 3.4137931
19.620289 8.8470564 1.6362863 4
32.322342 9.6656971 1.6545475 2
33.143776 9.9180946 1.6440394 2
33.777306 9.1429911 1.6329658 2
43.951962 9.6842346 2.2289991 20.333334
44.919113 10.098685 2.2410278 22.5
45.485657 10.356203 2.2481804 23
13.999898 10.025604 1.5946267 9.2678576
14.97116 9.7490854 1.6016481 11.793651
15.479754 9.5264797 1.6041725 12
18.099552 10.373543 1.6438692 6.6969695
18.715576 9.8740873 1.6420951 4.5185184
31.016819 10.804072 1.6734762 3.2857144
31.734974 10.368712 1.6637468 2
33.980965 10.730481 1.6342003 2
46.150955 10.636057 2.2563858 24.5
46.716644 10.900524 2.2635653 26
48.162369 11.521559 2.2814417 28
16.2269 11.459352 1.6371439 6.875
16.916742 11.095297 1.6422982 8.0851068
17.580606 10.704473 1.6448301 8.8571424
29.189817 11.782108 1.695189 4
29.73661 11.555617 1.6889764 3
30.891972 11.229343 1.6749256 8.166667
38.533028 11.943268 2.1971498 14
48.785995 11.889531 2.2899101 42.5
14.155402 11.838135 1.6240779 5.6666665
14.896442 11.764099 1.6299376 6.6190476
15.733425 11.643351 1.6332374 12.333333
27.002621 12.59427 1.716959 2
27.809814 12.542184 1.7083355 2.9230769
28.671375 12.170828 1.7001274 2.5999999
40.103561 12.542439 2.2157152 64
41.793892 13.192163 2.2357135 12
26.365822 13.258401 1.7191328 2
27.157316 13.311691 1.7106962 3.75
42.542297 13.497644 2.2446833 12
44.191833 14.23882 2.2648904 61.5
25.946899 14.590115 1.7111664 2.5333333
26.6504 14.168129 1.7089646 3.2857144
45.860146 14.892022 2.2846699 9
23.11882 15.605845 1.7174515 5
23.427406 15.513637 1.7172973 2
24.770746 15.288528 1.7122725 3.8666666
25.444019 15.0389 1.7104813 3.7142856
47.53244 15.632108 2.3050416 7
69.16568 16.950756 2.5124791 63
19.995218 16.565903 1.707108 8.7777777
20.764406 16.499323 1.7086605 9.2222223
21.756355 16.347473 1.710229 11.111111
22.550083 15.964908 1.7143104 15
24.211884 16.093906 1.7051606 6
24.463575 15.949073 1.7057421 6.2222223
52.011993 17.240021 2.3571389 39
62.0644 17.581188 2.4523017 63
65.057076 17.061214 2.4759519 63
68.914078 18.123053 2.5187721 63
15.153352 16.995672 1.6653805 1.6666666
15.763494 17.119274 1.6696876 11.75
16.753429 17.153128 1.6788948 9.3000002
17.733316 17.130615 1.6868494 8.454545
18.742043 16.910015 1.696867 12.608696
19.611107 16.766685 1.7025193 9.5
51.092484 18.519697 2.356463 37.5
51.381248 17.93449 2.3556142 38
68.746666 18.60117 2.520658 44.25
50.646347 19.089518 2.3555889 36.714287
60.027046 19.82299 2.4484451 62
60.291328 19.540329 2.4490943 62
68.388214 20.067991 2.5275748 100
48.502708 20.265766 2.3415549 33
49.963058 20.118692 2.3548861 36
50.400032 19.760006 2.3570948 36.5
59.683037 20.163754 2.4473825 61.25
68.285339 20.645184 2.5305214 63
48.437347 20.680122 2.3430979 33
68.067398 21.421192 2.5336349 63
46.812851 21.84536 2.3328543 32
47.670166 22.205101 2.3431015 33.666668
47.396729 22.954128 2.3438301 33.333332
45.459167 24.334045 2.3298781 32
47.476158 23.924622 2.3489199 34.400002
55.779709 24.417992 2.4341877 55
44.682892 24.877407 2.3238525 65
45.181725 24.903629 2.3291767 48
55.681351 25.101406 2.4366343 56
43.656898 26.388142 2.3181779 31
45.24791 25.922409 2.3336334 32.5
43.355854 26.729919 2.3159914 41.333332
41.598827 27.435688 2.2986541 29
42.188004 28.205723 2.3073392 31
53.373138 27.866192 2.4259367 54
41.600494 28.727333 2.3020236 30.4
42.110458 28.418915 2.3070259 31
40.444412 29.851933 2.2912292 30
50.933067 30.146271 2.4090414 51
39.19651 30.716583 2.2780564 29.666666
40.370201 30.402416 2.2914758 31
49.060074 31.535908 2.3932009 49
38.240135 31.552441 2.2677541 29
48.98642 31.866779 2.3933635 36.333332
36.239578 33.132004 2.2443829 58
37.562157 32.886028 2.2610273 30
38.10498 32.711544 2.2676435 30.6
48.907166 32.584618 2.3945355 50
36.076233 33.322891 2.2424366 38
37.556801 33.268299 2.2613904 31
46.674858 34.09687 2.373013 26.5
46.933609 33.806522 2.3753247 48
46.184128 35.309002 2.3698883 27.5
46.816628 34.513165 2.3755918 20
37.593773 36.090954 2.264447 35
37.827984 35.832558 2.2673092 45.666668
38.8759 35.789543 2.2808394 72
44.492218 36.39389 2.3516726 4
45.153885 36.163403 2.359252 20
45.721481 35.837475 2.365448 118
36.580864 37.143364 2.2516332 35
37.077377 36.656342 2.2579904 38.888889
44.085316 36.875694 2.3474705 56
31.959015 37.739334 2.1872072 31
36.079544 37.617348 2.2450299 35
43.819633 37.684414 2.3454039 6
31.212366 38.547935 2.1760268 31.888889
31.683298 38.040768 2.1831272 31
32.761612 38.285034 2.1986954 33
35.120415 38.668926 2.2320702 36
35.613541 38.15596 2.2388287 36
42.169357 38.880508 2.3261194 19
30.248848 39.553143 2.1611493 32.714287
30.685776 39.095676 2.1679759 32
34.289619 39.491169 2.2204113 44.200001
34.64975 39.234146 2.2255263 37
29.233507 40.666389 2.1448572 33.5
29.721727 40.126442 2.1527741 33
28.332542 41.646725 2.1299229 34.25
28.743212 41.224277 2.1367667 42.75
27.308514 42.787354 2.1123891 36
27.796738 42.318031 2.1207354 35.42857
26.783381 43.374866 2.1031666 36.875
25.854897 44.34491 2.0866261 38.555557
24.956022 45.302853 2.0702167 40.285713
23.995823 46.443306 2.0521114 42.666668
24.463829 45.906166 2.0609722 41.5
23.038918 47.474407 2.0338194 44.75
23.467964 47.035023 2.042038 44
22.601444 47.938416 2.0253429 45.666668
29.318884 -66.300743 2.4131374 55
23.433722 -40.370083 2.2363279 78
23.779726 -19.905003 2.8626447 21
24.752037 -19.474377 2.8874519 7
22.856712 -17.89484 2.7861543 26
23.586754 -17.696602 2.8073461 23.5
1.0600729 -16.111984 2.0366054 70.666664
22.007658 -16.039017 2.1697261 91.571426
22.581444 -15.7254 2.183985 94.222221
0.81724262 -15.432963 2.0268626 89.449997
0.43320847 -14.459521 2.0131791 78.550003
6.435461 -13.892142 2.0709028 49.5
-1.1576805 -13.621709 2.1581349 24.200001
-0.24740982 -13.454362 2.0097661 42.739132
0.20381069 -13.924813 2.0950685 57.333332
6.0682449 -13.073562 2.035414 100
6.276258 -13.560464 2.0907054 79.222221
-5.7673206 -12.261296 1.6619489 64
-1.1969757 -12.864909 1.7195014 97
0.70901775 -12.049077 1.745839 81.5
5.7407217 -12.321343 2.0526042 90.652176
3.9777546 -11.246661 2.1215248 50.5
4.6512856 -11.045396 2.0335767 52.625
5.3199401 -11.366319 2.0605576 59.947369
12.987671 -10.866883 2.1702332 38.57143
9.8862505 -9.933629 2.1843867 54.5
12.639806 -10.088741 2.1848409 46.611111
15.834624 -9.6906967 2.2512071 13.833333
16.122667 -10.215077 2.0199144 9
6.4107013 -9.4659538 1.8294733 58
7.9958825 -9.4170637 2.3382483 44
8.5720119 -9.0864897 2.2317991 60.863636
9.4049587 -9.0983973 2.2347598 44.534885
10.614148 -9.0635586 2.5832357 12
11.583452 -8.7608099 2.5829573 25.200001
12.228965 -9.0894451 2.1023242 42.833332
15.49201 -8.927083 2.2202554 16.272728
18.483135 -8.6569977 2.0744946 17
8.7984581 -8.4876709 1.8680857 112.5
10.674833 -8.354805 2.0643146 90.307693
11.550507 -8.1931143 2.1041834 87.651161
13.311156 -7.6800146 2.2208712 89.5
14.755437 -7.6600571 2.4647844 18.444445
15.132931 -8.1224451 2.1545696 17.625
17.990974 -7.738905 2.0613163 2
19.665497 -8.1784792 2.643991 27.5
20.262634 -8.0246582 2.8415534 20
21.254505 -7.6060867 2.8756642 23.4
11.363849 -7.3284349 1.9131953 98
13.642208 -7.3358984 2.2474449 43.625
14.440249 -7.3036327 2.2783084 65.846153
15.660719 -6.6149769 2.2934093 41.466667
17.79916 -7.3981352 2.0562003 2
18.744244 -6.8160133 2.3343451 16
23.87945 -6.4472837 2.9835205 18
24.000065 -6.4117613 2.9897096 21
13.79702 -6.1922941 2.3821385 25.9375
14.237456 -6.197504 2.3072701 38.615383
15.76593 -6.1825314 2.2859874 48.166668
16.413914 -6.1430273 2.3640673 75.1875
17.051991 -6.2194014 2.329812 28.666666
18.285007 -5.8130293 2.2141521 4
25.043991 -5.9318562 3.0399604 24
13.304214 -5.0331106 2.3139827 75.083336
15.773516 -5.4564686 2.5329041 2.3333333
16.445078 -5.1590633 2.2832949 4.3214288
17.252983 -4.8092737 2.4246569 12.294118
18.338505 -4.6429558 2.2810953 39.174603
18.948418 -4.4062529 2.1931288 46
27.042145 -4.1970072 2.7221694 13
18.420452 -4.2419271 2.8458447 8.5555553
19.267857 -4.0792017 2.3783333 40.3125
20.376011 -3.7823563 2.4044642 43.439999
21.17458 -3.4327011 2.4338245 40.57143
25.423466 -3.7195005 2.8214612 16.25
18.710024 -2.6178732 2.4167335 61
19.403982 -3.119029 2.1994839 27.818182
20.355751 -2.7398472 2.1241038 34.346153
21.341434 -2.7592707 2.2774551 37.333332
22.344746 -2.9089174 2.4802742 46.045456
23.291363 -2.5262017 2.5207586 24.277779
24.009697 -2.2544346 2.3962235 42
24.828819 -2.3083797 2.932507 19
26.371668 -2.4319534 2.4044828 86.181816
30.357092 -2.2545109 2.8787432 4
21.595161 -2.2035909 2.1608911 32.166668
22.28171 -1.8983893 2.1819651 34.400002
24.42824 -2.0537772 2.361315 54.25
26.359982 -1.6829329 2.3544052 64
27.242498 -1.3210917 2.4330673 54.375
27.205299 -1.0914202 2.3354919 84
28.392986 -0.59354782 2.3752699 19.764706
28.876465 -0.14108658 2.3930635 77.333336
30.64773 -0.15583563 2.4488499 100
30.801447 -0.043479919 2.8975551 23
29.178164 -0.02051878 2.4033034 19.75
30.610075 0.26262045 2.4503601 85.625
31.147898 0.65919399 2.5103292 79.727272
31.858286 0.94676447 2.4946611 4
44.248787 1.1856413 2.8922441 54.75
32.845016 1.7571614 2.532124 18.25
43.930832 1.8896604 2.8879404 27.375
40.862778 3.2205527 3.1315274 44.5
43.576004 2.6914339 2.8834524 27.5
43.702297 2.4149005 2.8850958 27
40.890625 3.6432369 3.1102638 31.615385
42.956238 4.1318312 2.8765335 66.75
42.521946 5.13657 2.8720911 54
42.732712 4.66572 2.8743622 65
42.166252 5.8102417 2.8672752 30.799999
39.185535 7.1137276 3.095305 49
41.491722 6.964263 2.8573124 62.666668
41.677879 6.5681458 2.8592103 54.200001
39.135513 7.4863539 3.097383 35.299999
39.599907 7.8002291 3.1214166 18
41.219818 8.1493721 2.8611813 53.666668
41.201057 8.4489441 2.8638535 42.333332
42.106064 8.9122772 2.8979797 28.75
43.331055 9.4373798 2.9430926 9
44.060265 9.7534447 2.9700136 16
45.019119 10.171613 3.0054646 10
45.608505 10.434246 3.0273337 10
46.033241 10.618213 3.0430384 10
46.72625 10.906524 3.0685363 11
47.653046 11.306726 3.1028218 11
38.554951 11.962588 3.02878 20
48.308693 11.611971 3.1273479 11
48.915199 11.913326 3.1502709 18
50.42028 12.516495 3.2054763 13
40.112385 12.489031 3.2079 96
41.785873 13.137889 2.9382265 91
50.886108 12.7423 3.2230361 13
51.788528 13.128191 3.2564504 13
42.543442 13.500508 2.9668884 20.5
44.16993 14.235469 3.0278907 26
57.789406 14.717545 3.4669735 18
45.871765 14.898437 3.0903726 55.5
57.690132 14.86136 3.4655538 18
47.530937 15.5623 3.1515245 18
60.074745 16.569546 3.5624704 41
51.427345 17.580542 3.3012252 28
59.613678 16.982384 3.5529647 20
50.82135 18.123814 3.289361 21.428572
50.055893 19.039734 3.2777104 24
50.363884 19.08025 3.2879722 27
60.073845 19.751633 3.6031053 43
60.314011 19.551689 3.6080832 64.5
49.848145 20.081318 3.2856617 16.75
50.339561 20.094297 3.3012295 18.333334
59.789261 20.083162 3.5984826 21
47.691841 21.45274 3.238018 26
48.665245 21.141798 3.2637928 23.6
49.665276 20.788845 3.2899303 16.5
47.487724 21.952061 3.2390165 20.799999
48.343224 21.656479 3.2612329 26
46.801872 23.331635 3.2384543 32.5
47.397957 22.882416 3.2500782 24.5
46.647194 23.704006 3.2393651 19.5
44.868126 25.305302 3.2099171 38
45.288437 24.860748 3.2156997 28.571428
46.741684 25.002766 3.2622762 13
44.476242 26.014336 3.2093832 23.555555
45.007774 26.096935 3.2267766 39
42.870369 27.356876 3.1829824 12
43.28717 26.931625 3.1884577 26.125
44.111443 26.626461 3.2082424 12
42.280777 27.881096 3.1741595 21.555555
43.094589 27.673958 3.1949506 12
52.848633 28.039276 3.496244 18
41.516399 28.672241 3.1648686 20.166666
40.566811 29.974953 3.1594257 24
42.062622 29.709011 3.1987178 12
39.322586 30.899334 3.1395688 22.666666
39.959412 30.467243 3.1503534 24
38.486229 32.098946 3.137054 20
37.317837 32.860661 3.1177578 24.166666
37.928436 32.354763 3.1257927 27.25
37.067364 33.424072 3.1210938 12
46.654442 34.19437 3.4110279 56
46.814651 33.922375 3.4110475 67
46.348892 35.051498 3.4169688 44.5
46.779396 34.592484 3.4215808 100
38.218407 35.680008 3.1953282 85
45.388664 36.084049 3.4071579 35
45.891762 35.593189 3.4131079 26
44.017532 36.951 3.3831098 54.599998
38.32756 38.168179 3.2450995 13
39.132133 37.316544 3.2514415 19
43.802856 37.803181 3.3923597 53
37.946182 38.754887 3.2457228 39.57143
43.051376 38.598316 3.3854818 17
31.084219 39.875713 3.0838132 26
31.607897 39.979649 3.0995197 13
33.282318 39.301071 3.1301308 54
34.153896 39.641018 3.1600208 75.333336
34.919563 39.66914 3.1810503 60.75
36.901123 39.890663 3.2388725 15
37.621674 39.379204 3.2487082 15
30.224051 40.567753 3.0754874 13
30.677326 40.425076 3.0842934 19.75
32.050041 40.507286 3.1215897 13
36.183281 40.528473 3.2317784 30.5
36.647141 40.562531 3.2449646 15
28.232056 42.881153 3.072094 14
28.801338 42.600979 3.0806255 14
29.553316 42.38036 3.0950923 14
28.321823 43.096909 3.0787613 14
36.896965 44.915104 3.3366833 51.75
25.9534 45.196095 3.0639367 15
26.609602 45.267467 3.0813308 15
35.908058 45.626286 3.324574 78.25
35.380035 46.1763 3.3216357 76
34.166283 48.054901 3.3277886 20
33.188946 48.713009 3.316067 80
33.597992 48.221817 3.3165736 69.75
32.785759 49.42625 3.3203154 25.25
31.058407 50.726856 3.3035381 42
30.653383 51.585815 3.3111768 95.333336
29.836037 52.595257 3.3119149 59.799999
30.210732 52.120869 3.3112912 100
27.900339 54.601479 3.3067672 72.333336
28.269091 54.278706 3.3088768 35
26.763302 55.493664 3.2983828 37
27.420235 55.147392 3.3067174 61.25
25.895424 56.788139 3.3051467 100
26.242313 56.332748 3.3037119 94.5
24.798527 57.793476 3.3008144 27
25.365152 57.365276 3.3049369 48.833332
24.397957 58.110729 3.2982714 27.5
23.723736 -44.913948 3.4506977 38
1.4012709 -27.011551 3.3655179 10
1.9024782 -27.02002 3.3668556 62
1.8796177 -26.859383 3.3595343 36.400002
13.88736 -24.725449 3.4032516 43
-3.3087072 -24.747643 2.4845064 71
13.406359 -24.468987 3.3799725 63.5
13.697006 -24.32729 2.9183145 51
52.218033 -23.224407 4.1538901 17
51.756409 -21.965454 4.1181207 66.25
3.9136076 -22.208569 3.1525273 25
51.225861 -20.69952 4.0792861 16
51.518646 -21.294857 4.0996222 16
22.719641 -18.814854 3.4148271 26.799999
23.800146 -18.295357 3.440012 39.25
24.733929 -18.41695 3.4883068 42.599998
23.93516 -18.209393 3.442452 48
27.508747 -18.100349 3.6124356 91
30.573948 -16.196026 3.7095184 64
30.924635 -15.77876 3.7155271 24.375
31.668392 -15.508067 3.7504163 17.571428
31.865849 -14.622325 3.7333574 48.833332
32.5924 -14.477757 3.7733216 81.800003
33.509247 -14.676984 3.8365116 84.400002
5.992475 -13.284911 2.7510056 52
5.3224988 -11.84669 2.6872377 3
5.008204 -11.128961 2.6569076 65.666664
5.185782 -11.430921 2.6694207 83.333336
9.6593685 -10.109755 2.9917569 35.888889
8.7420254 -9.3714657 2.9377007 86.599998
9.2822666 -9.4054346 2.9408119 57.400002
16.683218 -6.4746122 2.9084697 2
17.036228 -6.5427227 2.9300056 13
18.764332 -6.616725 3.0273235 100
44.804016 -5.8220558 4.4529772 15.25
13.821643 -6.1222687 3.3934269 36.727272
14.458427 -5.9760351 3.4923172 48.552631
15.224674 -5.6215391 3.4821 68
16.897377 -6.3570499 2.9108279 12
26.16563 -5.4402905 3.0988951 6
44.832695 -5.4631977 4.4518619 10
45.116287 -5.3695345 4.4725404 10
13.383237 -5.1999626 3.4522245 54
14.444543 -4.9876757 3.7143312 1.2
15.400861 -4.9895411 3.6482358 41.542858
16.390652 -5.0520668 3.5883536 100
17.342911 -4.62183 3.5974665 96.653847
15.698806 -4.4288473 3.7024226 8.6999998
16.123148 -4.2340155 3.7050133 10.5
17.823963 -4.4131079 3.6237407 100
18.364828 -4.1621542 3.5845733 54.657143
19.109083 -3.7522316 3.4670238 20.59091
43.487473 -2.7826157 4.3303318 13.5
18.509722 -2.8576212 3.5771356 44.379311
18.995556 -3.2305231 3.3987117 12.6
43.483829 -2.319396 4.3278775 20
45.620689 -2.0023203 4.491756 25.166666
42.5895 -0.72384214 4.2536469 17
45.408966 -1.4814167 4.4739728 30
42.491356 -0.32453489 4.2454352 21.5
42.933434 0.027353764 4.2795367 13
44.621582 0.31152296 4.0323596 37.5
44.342392 0.91861534 4.015594 39.4375
43.919151 1.8638074 3.99088 34.375
40.871864 3.1961784 4.1254835 43
43.565971 2.6661201 3.971324 25
43.685402 2.387253 3.9777794 26
40.96106 3.6772285 4.0511098 24.875
42.951401 4.1074457 3.9398165 53.875
42.48708 5.1657605 3.9176979 48.5
42.716766 4.6429315 3.9284439 52
42.230705 5.8406301 3.9076481 32.388889
39.188549 7.0951347 4.0289907 39.666668
41.899731 6.7077904 3.8465886 31.714285
39.106689 7.4647675 4.0276895 33.599998
39.618492 7.7824049 4.0725346 7
41.218117 8.1286898 3.8674541 42.5
41.185555 8.4270058 3.8694284 36.166668
42.13195 8.9467916 3.9405189 20.200001
43.277367 9.4090729 4.0239778 17.5
43.995834 9.7229252 4.0766311 8.833333
44.94886 10.139126 4.1469908 9
45.561951 10.404705 4.1921377 9.5
46.131783 10.649153 4.3680964 10
46.924065 10.981808 3.8866625 10
47.797493 11.379002 3.9408159 11
48.268349 11.58692 3.9699388 11
48.947044 11.900731 4.0121703 11
50.43177 12.506474 4.1033554 12
41.739651 13.117173 3.6393962 65
50.870918 12.720245 4.1309094 12
51.764664 13.104015 4.1861854 13
42.528164 13.538202 3.6900887 27
44.14991 14.214894 3.7908456 24
58.935165 14.761498 4.6063666 16
45.844193 14.937707 3.8964696 100
56.97908 14.852597 4.500885 15
57.945114 15.223491 4.5600286 16
59.684639 15.083809 4.6527834 16
47.51564 15.547991 3.9987125 100
59.977638 19.790691 4.7552075 35
60.321114 19.531258 4.7686086 52.5
59.441231 20.33968 4.7374024 73.5
47.811035 21.210318 4.1381607 25
57.931984 21.702175 4.6850715 100
58.697151 21.443253 4.720438 54
59.186905 20.967476 4.7366486 67
57.850609 22.300453 4.6937957 73
46.998283 23.347412 4.1493654 12
47.304688 23.276546 4.1633248 18.5
48.246933 22.60268 4.1950264 13
56.788437 23.590794 4.6665058 94.333336
57.281738 23.07333 4.6808019 100
55.77153 24.311401 4.6298342 82.25
56.360161 23.950066 4.6522622 71.666664
44.571617 25.337704 4.0798783 12
54.908554 25.630428 4.6167698 16
55.29644 25.18198 4.6259651 57
46.881165 25.95351 4.2133212 13
54.345657 26.173069 4.6011882 53.5
53.281372 27.251217 4.5741577 53.333332
52.48838 28.190575 4.5587435 71.428574
52.932396 27.709576 4.5684042 96
51.320717 29.082668 4.5242209 58
51.976898 28.724976 4.5473752 15
50.535416 30.258148 4.5183911 96.5
51.040466 29.740417 4.5287151 62.666668
49.360779 31.265942 4.4899554 69.400002
50.000084 30.858639 4.5093551 98.25
48.595581 32.353378 4.4855409 100
48.870445 31.879742 4.4844575 100
47.645905 33.388897 4.472054 100
48.11972 32.874462 4.4786968 99
46.639076 34.173897 4.449296 59.5
47.093948 33.740524 4.4569373 98.833336
46.218956 34.926819 4.4541383 24.555555
38.203568 35.657089 4.11832 73.5
38.825264 35.853573 4.1523046 26
44.542183 36.344284 4.4240294 61
45.151802 35.956669 4.43887 69.5
45.679024 35.499233 4.4478507 100
44.023277 36.905579 4.4197779 68.777779
38.374599 38.102646 4.215651 57.5
39.12191 37.295918 4.2176294 98
43.117416 37.86232 4.4125166 76.5
32.640633 38.780418 4.0101395 25
33.728104 38.718208 4.0499473 13
37.926567 38.584763 4.2149205 56.666668
41.263393 38.331615 4.3477159 52
42.319656 38.713524 4.4075365 90.599998
42.630577 38.360218 4.4085536 100
32.380806 39.675793 4.035902 13
34.076683 39.788494 4.1057563 56.5
34.917351 39.663273 4.1338224 56.75
36.238182 40.737537 4.2281456 23.333334
36.645653 40.686188 4.2424793 14
36.864548 44.61018 4.404458 48
35.916939 45.616074 4.407999 25.142857
35.053749 46.922733 4.428091 100
35.360878 46.474743 4.4214411 76.333336
34.107548 47.954716 4.4353881 100
34.579178 47.438419 4.4315271 99.599998
47.898605 48.448971 5.0022321 22
33.130722 48.789833 4.4347134 100
33.519192 48.248203 4.4262357 96.199997
32.12236 50.016407 4.4504094 100
32.625885 49.483047 4.4457169 100
31.047903 50.713173 4.4429998 100
31.652388 50.422047 4.4512877 100
30.644722 51.56525 4.4655094 100
29.810749 52.533707 4.4791985 100
30.191902 52.097996 4.4730997 100
28.786579 53.31205 4.4795837 87.199997
29.311996 52.956135 4.481092 100
27.894936 54.59087 4.5066605 100
28.318558 54.146725 4.5006871 100
26.745159 55.438206 4.5083122 79
27.404829 55.119141 4.5144439 98.25
25.871403 56.744022 4.5391974 100
26.232395 56.315075 4.5311427 89.75
24.685947 57.75922 4.5494146 21
25.351429 57.322121 4.5493579 81.833336
24.31986 58.226768 4.5595865 21
28.825956 -66.859398 4.1277575 52
29.027508 -64.22364 4.0695047 48
23.483429 -44.821644 4.6405845 86.333336
22.170416 -41.525066 4.4422102 98.5
-15.176916 -37.656719 3.908134 19
-14.951435 -36.37265 3.8554931 17
14.815797 -33.650753 3.8569403 12
14.664811 -33.383129 3.8404095 12
13.55028 -30.888332 4.542841 10
16.053209 -30.535767 4.5815725 15.5
16.876358 -30.522198 4.6047416 10
34.245171 -30.804802 4.4624877 20.5
35.031715 -30.517017 4.4910345 14
35.912071 -30.00322 4.5166316 14
13.208485 -30.127712 4.006206 11.714286
36.377083 -29.755993 4.5316668 21
36.712852 -29.587082 4.5430975 14
38.345894 -29.071293 4.6127386 14
12.492538 -28.731903 4.3651557 18
12.801051 -29.363834 4.1456766 29.5
14.383344 -28.638527 4.4011955 46
15.214262 -28.583485 4.4187436 9
39.246582 -28.514938 4.6428895 19.6
39.889511 -28.22559 4.6691127 14
-1.1108646 -28.048237 4.2562609 31
12.375196 -28.460217 4.3432708 18
14.295176 -28.458424 4.3861203 36.333332
15.077233 -28.341938 4.3977885 9
15.967642 -27.818195 4.3849969 17
-0.70479298 -27.867416 4.2402973 23
0.092349052 -27.536022 4.2111597 21.5
1.0445251 -27.134853 4.0624585 23.285715
1.9139977 -27.096027 4.1694427 23
13.730597 -26.831676 4.2557859 53.333332
45.715958 -25.751701 4.9387493 15
1.5332355 -26.918392 4.1594753 18
1.7407608 -26.862072 4.1545076 32
45.417244 -24.838932 4.8925738 59
45.637833 -25.364544 4.9222021 83
44.951439 -23.78825 4.8319941 87
0.42920113 -23.994495 3.9738483 24
8.0000687 -24.149921 3.9726005 33.25
8.7249622 -23.833076 3.956553 30.6
10.325617 -23.755463 3.9702883 9
44.667862 -23.12915 4.7947025 85
0.25328255 -23.835312 3.9653449 25.333334
9.1608486 -23.654919 3.948401 42
10.05558 -23.332378 3.9362974 29
44.633125 -22.209671 4.7662683 27.75
3.9750166 -22.280033 3.8333921 59
10.083748 -22.209019 4.5065508 52
11.003489 -22.266083 4.3053799 66.333336
11.638175 -22.21283 4.140408 60.400002
44.015221 -21.298653 4.7005424 77.5
45.245522 -21.477165 4.7857041 28
45.412376 -20.980087 4.7832713 22.333334
9.8455238 -20.919353 3.8639107 81.833336
12.149239 -21.088139 3.8093777 56.799999
21.254517 -20.447315 4.7060151 100
22.493969 -21.044838 4.8285089 54
45.888412 -20.404388 4.7996912 79
46.81395 -19.984451 4.8509769 71
10.118632 -20.565174 4.351109 89.25
10.886888 -20.204327 4.0955667 87.769234
11.489464 -20.224297 3.7353749 97.75
21.303192 -20.29425 4.6949139 100
21.616596 -20.043934 4.6898527 86.14286
48.087166 -19.431114 4.9238343 100
48.74424 -19.144764 4.9622211 73.833336
49.648643 -18.73138 5.0154023 100
22.175501 -18.998322 4.3213019 76.625
22.718491 -18.513767 4.34272 76.181816
23.445492 -18.310989 4.4438314 80.333336
24.862122 -18.464901 4.5254383 76.090912
27.580938 -18.210087 4.9328594 14.5
23.14176 -18.225697 4.0131269 65.5
23.762159 -18.174137 4.3326769 79.941177
24.330002 -18.235943 4.286221 81
27.50668 -18.1427 4.2666249 24
48.812393 -16.689034 4.9134545 49
30.996384 -16.125565 4.39503 12
48.585487 -16.036377 4.8842392 98.25
30.997591 -15.455312 4.3604398 93.625
33.123077 -15.114245 4.5060568 40.5
48.087471 -14.912015 4.8269181 50
48.258278 -15.424888 4.8489633 81
31.161938 -14.984353 4.3486876 100
31.658436 -14.739121 4.3743315 99.800003
32.72583 -14.831904 4.4614558 86.666664
33.501419 -14.844865 4.5231051 76.599998
48.099762 -14.183881 4.8141432 15.6
48.168358 -13.665769 4.8096824 39
47.914848 -12.976697 4.779429 69.400002
47.665718 -12.002635 4.7451963 14.166667
48.564049 -11.822007 4.8078074 12.5
49.29863 -11.704125 4.8598228 55.75
49.400536 -11.052884 4.8579369 18.200001
46.177078 -8.8603687 4.9314151 15.1
48.538849 -8.7595472 4.7645645 20
45.737305 -8.0135765 5.3850961 15.166667
46.636574 -8.4848652 4.6193495 11
48.227821 -7.9919758 4.7327328 20
45.30719 -7.0502357 5.3242259 19.5
47.937721 -7.3297224 4.7040238 23
44.75692 -5.7674017 5.2473593 21.333334
44.98761 -6.2903481 5.2790136 16.5
47.234848 -5.6711311 4.6359177 11
44.462967 -5.1132288 5.2078786 37.333332
45.316292 -5.2426262 4.4866557 10
46.773262 -4.6799746 4.5934544 22
47.013939 -5.2007017 4.6155148 15.4
44.068954 -4.197134 5.1554441 21.714285
46.536263 -4.094986 4.57165 29
43.62545 -3.1861162 5.0983872 28
43.173218 -2.1499801 5.0420547 29.125
42.664001 -0.97606373 4.9809966 32.666668
42.8517 -1.3995967 5.0030842 30.75
47.294693 -0.55834866 4.6195879 10
41.584934 -0.11846209 4.8669949 66.85714
47.639061 -0.43490362 4.6464539 11
41.192776 0.78044653 4.8234763 100
40.624859 2.1195025 4.7637424 100
40.813354 1.6447339 4.7831254 70.428574
40.452095 2.6755583 4.7468257 94
40.851963 3.141799 5.189981 62.799999
40.308983 3.8588605 4.971509 67.5
40.704803 3.5231752 5.4392447 50.799999
40.087982 4.7512741 5.0293112 50.333332
39.785454 5.7309089 5.0180135 43.25
39.280376 6.8242373 5.1449528 49.692307
39.641685 6.5504827 4.7635579 29.555555
39.075504 7.4428902 4.9610219 35.799999
39.917789 7.9110069 5.1109304 25.142857
40.650867 8.1961126 5.1535969 35
41.054749 8.3897171 5.0338464 26.75
41.976944 8.8822746 4.9692965 32.5
42.461159 9.0701256 5.0221806 6
43.196365 9.3772583 5.103055 14
43.894794 9.6873875 5.1803846 7.3333335
44.867195 10.105131 5.2879195 8
45.471718 10.368596 5.3549504 8
46.062332 10.637446 5.4207721 9
47.060005 11.041134 5.1205091 9.75
47.712715 11.341017 5.1857066 10.5
48.17205 11.549595 5.2313571 10.5
48.901978 11.907651 5.0868707 14
51.457726 12.960483 5.0925713 12
54.787102 14.219828 5.3779793 14
55.712936 16.939699 5.5128179 14.666667
58.793724 19.675091 5.8195267 16
60.071503 19.715473 5.9180818 17
60.178535 19.566496 5.922308 17
58.489769 20.624802 5.8225751 16
59.474274 20.301987 5.8884716 30.333334
58.020348 21.722198 5.8186765 99
58.251793 21.625301 5.8332863 99
57.92627 22.04707 5.8212399 99
58.112724 22.477459 5.8481803 16
59.9282 23.626175 6.0193934 18
55.790871 24.307682 5.7331052 88
56.113106 24.006432 5.7470264 96
55.562752 25.027985 5.7404976 16
53.61554 26.513615 5.6506376 46.5
54.284531 26.306278 5.6916795 23
53.451363 26.965462 5.6553802 62.25
53.254448 27.685528 5.6681204 15
51.353378 29.086781 5.5878224 81.333336
52.333939 28.648956 5.6396041 15
51.307816 29.705109 5.6095982 15
49.167137 31.309757 5.5294046 96.666664
50.14399 31.047493 5.584918 15
48.680191 32.511158 5.5494647 45
48.909843 31.707203 5.5292969 93.333336
53.972275 31.995083 5.8893609 33
48.091553 33.236542 5.5430412 45
46.6334 34.16164 5.4901743 100
47.072624 33.814915 5.5025511 83
46.54953 34.691013 5.5099683 30
46.854622 34.849297 5.5372424 15
38.209976 35.661804 5.0451803 81.25
38.798622 35.825001 5.0883694 100
44.540451 36.342232 5.463263 100
45.17408 36.14938 5.4933901 70
45.883461 35.833069 5.5226026 15
44.075745 36.845963 5.4599905 100
39.128685 37.307095 5.187994 27
43.433208 38.191612 5.4900556 57.5
43.689117 37.789291 5.4846787 40
32.364376 38.666363 4.8989668 12
37.841698 38.716068 5.192965 13
42.274033 38.781597 5.4517865 100
43.035683 38.571903 5.486095 85
32.526066 39.1166 4.9340458 12
34.471603 39.619705 5.0633502 92
34.76199 39.557766 5.0748558 65.666664
31.753572 40.25209 4.9644442 12
33.723225 40.31451 5.0660954 13
35.891312 40.397282 5.1833296 13
37.939629 42.451321 5.4114957 15
36.731499 44.954273 5.4954123 15
35.737919 45.825439 5.497767 21.4
37.112549 45.249073 5.5323792 15
35.384071 46.191856 5.5024748 31
33.143986 48.620312 5.5460424 97
33.525337 48.277187 5.5421944 80.800003
31.042202 50.700096 5.5846753 91.5
31.443819 50.597511 5.5953279 72
30.891994 51.014004 5.5983324 67
28.823277 53.164944 5.6525865 93.5
29.341825 53.070827 5.6669941 54
-16.896177 -51.414375 4.4824991 40
-16.698769 -50.083466 4.4255538 38
-16.582336 -49.170151 4.3867192 37
-16.592512 -48.063274 4.3409014 35.666668
-16.518221 -46.858772 4.2906694 33.5
-16.486628 -45.955444 4.2533741 32.5
-16.39406 -44.989243 4.213172 30.5
-16.189632 -43.835213 4.1645303 29
18.836388 -42.625992 5.5267038 16
19.506544 -42.599297 5.5461245 47.57143
20.55162 -42.187603 5.5515575 29.833334
21.504528 -41.789249 5.5566978 14.666667
22.28907 -41.457882 5.5619569 36.25
22.751907 -41.266945 5.5659308 17.5
23.454128 -40.974888 5.5727181 15.857142
24.310692 -40.617947 5.5820837 37
-15.774153 -41.401829 4.062674 25
-15.572065 -40.166813 4.0114021 23
-15.35594 -38.964127 3.9614978 21
15.948175 -36.220547 4.9851875 14
17.626699 -35.546196 4.9854436 13
14.192116 -32.594032 4.6802793 35
-13.330862 -32.693661 4.7698188 15
14.288598 -32.494961 5.5653782 12
0.54707146 -31.914528 4.5026202 12
1.5336847 -31.457874 4.4678698 36
2.0110855 -31.277424 4.4543719 45.200001
13.729414 -31.321758 5.4399166 11
33.050224 -30.979561 5.387116 98
33.810959 -30.865902 5.4267488 42
35.601494 -30.136623 5.4967279 14
35.865219 -29.999424 5.505908 21
36.341427 -29.766098 5.5237126 39
36.673866 -29.595882 5.536005 28
38.208336 -28.949318 5.6040039 14
39.207207 -28.525295 5.650825 52
40.066055 -28.138908 5.6915898 47.857143
40.710125 -27.854694 5.7233605 21.5
-2.8405008 -28.78191 4.7636724 17.5
-2.1474457 -28.502975 4.730751 19
-1.1388216 -28.049133 5.1037006 34
-0.73104763 -27.868649 5.0802484 33.5
0.066334724 -27.536194 5.037015 38.166668
0.98365688 -27.146976 4.9880776 38.5
1.9262486 -27.170467 4.9775562 27.666666
2.7957373 -27.600208 5.0071931 10
11.852556 -27.001209 4.9885936 32.5
13.815407 -26.806293 5.0121212 56.333332
15.19888 -27.254799 5.091898 9
15.748231 -27.057247 5.0895987 9
45.477066 -25.785923 5.9864888 15
45.70842 -25.688183 6.0004802 15
1.5005417 -26.936958 4.9619899 42
1.712594 -26.867748 4.9529958 56.5
11.484444 -26.266968 4.9121609 45
12.167378 -26.240547 4.9221754 19.799999
13.019346 -25.898037 4.9071288 28.444445
14.13419 -26.531029 4.9939408 27
15.149174 -25.807304 4.9531131 16
15.52563 -25.898907 4.9729738 18
45.980515 -25.518398 6.0145435 23
4.2525988 -25.842106 4.8351727 9
5.2458692 -25.32336 4.7823634 38.25
6.0855374 -24.974564 5.0132551 28.181818
6.5032477 -24.81715 5.4586349 16
14.236235 -25.303558 4.879828 8
15.12448 -24.591389 5.5464296 15.5
16.208828 -24.861507 5.6150188 15.5
6.9616008 -24.598209 5.0481558 32.333332
7.9085765 -24.192547 5.0303936 35.666668
8.717536 -23.847565 5.0283465 37.909092
10.331396 -23.791523 5.3493776 14
12.919836 -24.055721 5.4236903 23.799999
13.839408 -23.998272 5.4390612 21
14.723632 -24.141685 5.4808192 10
15.529367 -24.469677 5.5451827 20
52.057014 -22.569103 6.4025955 16
0.2831583 -23.854511 4.7098994 25.5
9.2038708 -23.63866 4.9285603 31.142857
9.7059441 -23.553394 5.0872931 23.666666
44.194206 -22.068306 5.7148628 70
3.9459858 -22.273392 4.8538294 61.900002
10.639809 -22.322029 5.1787801 18
11.807805 -21.999508 5.1573238 4
44.053936 -21.281227 5.6691704 51.599998
44.800804 -20.8722 5.7141089 45.5
45.35009 -20.660847 5.751533 84
51.236961 -20.689285 6.2617435 16
51.470062 -21.144318 6.2986941 16
10.053675 -21.303734 5.0523663 42.57143
11.06645 -21.562119 5.09407 13
12.017676 -20.869179 5.0267653 67
21.447407 -20.63216 5.3820591 43.5
45.567337 -20.552628 5.7655001 21
46.902382 -20.186409 5.8649282 14
48.294678 -19.526794 5.9607425 14
51.003586 -20.142464 6.2216139 15.5
11.020609 -20.278427 4.9413452 38
11.54932 -20.41634 5.2381654 39.666668
21.890182 -20.005116 5.3405342 59.090908
22.446716 -20.167873 5.3950481 40
48.417397 -19.426754 5.9678125 29
49.986031 -18.809582 6.0845633 15
50.286514 -18.632694 6.1052995 30
22.289677 -19.244865 5.2828727 51
22.745081 -18.780762 5.2638927 55.416668
23.70507 -18.460575 5.2992296 57.599998
24.603695 -18.619087 5.3848705 58.5
27.625599 -18.239815 5.6005831 4
50.026131 -17.921597 6.0579739 15
50.272537 -18.438919 6.0974646 15
49.679443 -17.077663 5.9989214 14
49.096893 -15.783433 5.904768 18.666666
49.357132 -16.361694 5.9466596 14
33.154819 -15.253211 5.200882 100
33.349403 -15.267863 5.2203531 87
48.772217 -15.007627 5.8512244 17
48.34343 -14.032561 5.7827597 13
47.893951 -12.997447 5.7115278 20.6
47.441566 -11.999677 5.6420527 34.599998
46.93734 -10.825574 5.7872891 44.75
47.148827 -11.325601 5.5968556 24
46.600952 -10.061452 5.9536252 31
45.957947 -8.6074638 6.2712531 23
46.230667 -9.1854744 6.0737834 32.714287
45.725166 -8.0362377 6.2265821 24.166666
45.310959 -7.0771484 6.1499896 23.333334
44.780602 -5.8599281 6.0546145 54.5
45.005676 -6.3870525 6.0949926 35.333332
44.462605 -5.136404 5.9990211 42
44.034637 -4.1502066 5.9256525 46.125
43.595795 -3.140626 5.8526034 36
43.165199 -2.1703243 5.7836266 58.875
42.637657 -0.94499874 6.0657463 42.125
42.831871 -1.384048 5.9757299 50.5
42.319817 -0.20462847 6.0339947 38.882355
41.89946 0.76860809 5.925262 35.235294
41.444618 1.8166344 5.8972626 29.82353
41.671455 1.2980866 5.9107633 29
41.062057 2.7018833 5.8638921 38.9375
40.47234 4.0610819 6.0738144 35.75
40.694412 3.5594654 6.1057444 29.166666
40.182266 4.751389 6.0342054 26.4
39.77401 5.7099986 5.981812 21.6
39.327465 6.7358341 5.929163 32.099998
39.555756 6.2272005 5.9554791 35
39.142128 7.4747038 5.9147162 20.166666
40.003944 7.9704533 6.0535102 8.666667
40.571209 8.2201128 6.1435695 9
41.076397 8.440506 5.9964156 12
41.923386 8.8548145 6.0097537 19.5
42.462555 9.0493164 6.088109 10.5
43.155285 9.3506012 6.1906905 11
43.853569 9.667347 5.9196205 14.666667
44.78904 10.077005 6.0464201 9
45.39006 10.339371 6.1279917 10
46.090935 10.624683 6.2227049 10
46.937744 10.996325 6.3379779 10.5
47.560524 11.291762 6.4234548 11
48.044205 11.500513 6.4893451 11
48.924728 11.947346 6.2620707 39.200001
50.242767 12.433227 5.8858614 12
50.706566 12.65757 5.9382362 12
51.595261 13.038832 6.0374622 12.5
55.281693 15.705376 6.480268 15
58.16539 21.663506 6.9633493 100
57.907867 22.200306 6.9585972 79.25
58.062286 22.528721 6.9861236 17
55.696854 24.432205 6.8359594 87.25
56.046516 24.044163 6.85288 100
55.62616 25.12392 6.8592095 16
66.748016 25.928642 6.6011677 31
53.670326 26.524544 6.7388482 100
54.354248 26.360592 6.7951126 26.666666
53.450806 26.950298 6.7386732 79
52.312073 28.619942 6.7164416 31
53.129242 27.881874 6.7542868 16
51.349823 29.073517 6.6526413 83.5
52.104431 28.870842 6.7104087 15
51.319817 29.796402 6.6880817 23
49.177666 31.306137 6.5817089 97.333336
49.99366 31.211269 6.6478081 15
48.66188 32.483616 6.6052136 31
48.916245 31.893341 6.5927448 66
47.947548 33.411289 6.5996456 30.5
46.633652 34.149315 6.5348673 100
47.052185 33.789471 6.5474424 100
47.72242 33.630081 6.5939174 93
46.349792 35.025768 6.5668159 60
46.799126 34.581917 6.5756807 100
38.067032 35.80838 5.9751825 54.714287
38.804558 35.82357 6.0304213 100
44.542358 36.332905 6.5060463 100
45.185684 36.081207 6.5407548 65.285713
45.825317 35.608345 6.5613704 35.333332
37.191536 36.703793 5.9776721 100
37.668583 36.19569 5.9743404 100
